ply
format ascii 1.0
comment Created by CloudCompare v2.10 (Zephyrus)
comment Created 6/24/2020 3:07 PM
obj_info Generated by CloudCompare!
element vertex 1892
property float x
property float y
property float z
end_header
5.21642 5.32497 2.5513 
5.103 5.54864 0.560375 
5.12033 5.03751 -0.015813 
5.98602 5.32104 2.46109 
5.22227 5.02953 0.973322 
5.28987 5.56871 1.53968 
5.92667 5.25975 1.71703 
5.96533 5.32879 2.55112 
5.28642 5.16371 0.69566 
5.72227 5.17981 1.07515 
5.92838 5.29302 1.70926 
5.36215 5.31673 2.36124 
5.67161 5.14432 0.795408 
5.54531 5.16138 -0.000855001 
5.26411 5.19307 0.876256 
5.1175 5.07797 0.541735 
5.65858 5.19566 0.678605 
5.103 5.54864 0.560375 
5.12004 5.31123 -0.043291 
5.17802 5.55238 0.571723 
5.97188 5.45836 1.38856 
5.49281 5.27728 2.60179 
5.40985 5.07391 0.713606 
5.7393 5.0397 0.956187 
5.47107 5.32158 2.37779 
5.76415 5.30662 2.36656 
5.95684 5.31853 2.50658 
5.38809 5.0984 0.706888 
5.89123 5.36943 1.27448 
5.9192 5.08824 0.493645 
5.58548 5.56668 0.423149 
5.79659 5.02412 1.4165 
5.23734 5.15557 0.706658 
5.06311 5.03 0.563534 
5.64616 5.33868 0.506002 
5.05558 5.02595 0.801309 
5.01462 5.52365 0.45242 
5.94468 5.45604 1.40802 
5.76759 5.05967 1.01333 
5.98751 5.2805 2.33952 
5.23468 5.15507 1.07688 
5.08929 5.2786 -0.040911 
5.01628 5.57713 1.01846 
5.60005 5.31184 2.69001 
5.05416 5.43557 1.24233 
5.14046 5.53192 1.23955 
5.48521 5.27143 2.46089 
5.06334 5.43972 1.0754 
5.50747 5.32111 2.6076 
5.8885 5.35681 1.31417 
5.30069 5.17551 0.669915 
5.93995 5.02958 1.3985 
5.2501 5.02758 1.40513 
5.20281 5.14404 1.01351 
5.19998 5.3188 2.60729 
5.6156 5.46032 0.531194 
5.63346 5.25508 0.585252 
5.68542 5.21287 1.06257 
5.02747 5.55256 0.071565 
5.07159 5.58044 0.579636 
5.21149 5.09848 0.956935 
5.07112 5.27451 2.61831 
5.27077 5.32465 2.55435 
5.00183 5.62584 0.811046 
5.04863 5.00579 0.96434 
5.88528 5.12239 1.34448 
5.14175 5.02407 1.26531 
5.9005 5.25298 1.62571 
5.99206 5.31342 2.44106 
5.66714 5.10691 0.842803 
5.11406 5.02053 1.07544 
5.47448 5.50451 -0.031245 
5.62615 5.52498 1.54616 
5.14391 5.33235 2.57766 
5.10674 5.55497 1.13715 
5.6348 5.26646 0.550373 
5.53019 5.50962 -0.031114 
5.65569 5.32165 2.58462 
5.16485 5.56602 0.076307 
5.20928 5.02532 0.469458 
5.91465 5.31173 2.67198 
5.0958 5.30666 -0.01661 
5.81184 5.26644 1.31739 
5.40882 5.72495 1.4067 
5.53802 5.31136 2.33076 
5.00279 5.67659 0.785433 
5.17789 5.32838 2.66062 
5.35888 5.38686 -0.037794 
5.94658 5.31754 2.51348 
5.54981 5.39155 -0.03165 
5.40501 5.32549 2.60116 
5.04227 5.55841 0.86116 
5.29288 5.60247 1.2094 
5.86947 5.31937 2.57406 
5.50239 5.33065 2.5588 
5.78559 5.22308 1.15844 
5.134 5.38269 -0.041358 
5.25755 5.49458 -0.030456 
5.44593 5.46744 1.62628 
5.16574 5.1045 1.10803 
5.80812 5.21326 1.16419 
5.00282 5.58136 1.00785 
5.22822 5.46934 0.936747 
5.25755 5.49458 -0.030456 
5.43585 5.32089 2.40342 
5.00614 5.48446 0.964125 
5.10675 5.53062 1.39692 
5.38428 5.32947 2.64976 
5.53031 5.51757 0.886386 
5.52111 5.31681 2.54486 
5.1354 5.10797 1.15358 
5.26359 5.32856 2.5083 
5.19156 5.07032 0.396571 
5.4877 5.54004 0.467901 
5.0237 5.63382 0.131658 
5.66146 5.50352 0.08959 
5.04863 5.00579 0.96434 
5.78232 5.07378 1.03969 
5.16634 5.63791 0.152532 
5.93593 5.43053 1.38103 
5.14305 5.10774 0.716074 
5.21888 5.20281 0.714531 
5.63004 5.45862 0.41621 
5.29976 5.3263 2.69458 
5.0625 5.57882 0.371587 
5.21227 5.16502 0.960662 
5.89583 5.98561 0.13188 
5.22227 5.02953 0.973322 
5.60999 5.71962 1.33718 
5.00997 5.61708 0.578286 
5.05373 5.63407 0.473818 
5.55214 5.61221 0.751161 
5.39395 5.10627 0.79224 
5.54718 5.31988 2.37652 
5.91533 5.26232 1.36093 
5.62864 5.27568 2.60792 
5.00106 5.68443 0.74308 
5.42967 5.68501 -0.029902 
5.09601 5.04359 1.40432 
5.06963 5.52964 0.902775 
5.14907 5.03594 -0.022733 
5.01839 5.46255 0.742614 
5.21247 5.3358 2.52201 
5.05705 5.61829 0.572915 
5.97949 5.32028 2.52753 
5.02818 5.57539 0.939539 
5.89421 5.03505 1.40217 
5.0892 5.42343 1.33674 
5.22816 5.00047 0.574447 
5.36885 5.1437 -0.028388 
5.28166 5.11595 1.21068 
5.54669 5.37932 0.853917 
5.04251 5.53981 0.332391 
5.20683 5.04679 0.239382 
5.03482 5.33328 2.62107 
5.67079 5.34866 0.462839 
5.63587 5.4059 0.675208 
5.0701 5.04612 1.00308 
5.38312 5.12658 0.735688 
5.25152 5.27452 2.40169 
5.103 5.54864 0.560375 
5.07736 5.65579 0.538832 
5.396 5.27662 -0.026358 
5.10565 5.709 1.21464 
5.25841 5.17935 0.878022 
5.54027 5.50568 1.19052 
5.24698 5.29618 2.4477 
5.00183 5.62584 0.811046 
5.20154 5.31971 2.60139 
5.5386 5.70236 1.24136 
5.28947 5.18879 0.668701 
5.82892 5.17657 0.511274 
5.05008 5.53549 0.52681 
5.07004 5.51305 0.166276 
5.31034 5.32692 2.50965 
5.28255 5.07266 1.23199 
5.36909 5.09762 2.58946 
5.332 5.29785 2.40155 
5.36999 5.11559 0.706289 
5.28315 5.16206 0.887872 
5.052 5.59507 0.295555 
5.08513 5.64367 1.18439 
5.96396 5.05841 0.486044 
5.011 5.71075 0.328657 
5.54173 5.31153 2.34625 
5.61689 5.59723 1.48753 
5.5964 5.31933 2.42526 
5.45479 5.02094 0.810247 
5.18333 5.05269 1.04552 
5.07072 5.62864 0.458672 
5.09003 5.09074 0.750969 
5.18216 5.32868 2.55533 
5.52584 5.50246 1.26345 
5.5156 5.3148 2.68299 
5.22642 5.2035 2.70819 
5.92657 5.97184 0.112947 
5.10565 5.709 1.21464 
5.44701 5.33139 2.47792 
5.63004 5.45862 0.41621 
5.25606 5.00095 1.39967 
5.01306 5.45628 0.325246 
5.27588 5.58303 0.143348 
5.04635 5.63069 1.09628 
5.01976 5.31568 2.38833 
5.38428 5.32947 2.64976 
5.10295 5.6346 1.34699 
5.71713 5.17264 0.959047 
5.28094 5.01965 1.21549 
5.04295 5.26508 -0.025852 
5.24161 5.5965 1.43042 
5.17313 5.11311 1.10517 
5.67542 5.12112 0.845232 
5.64757 5.22615 0.631633 
5.4096 5.10748 2.50712 
5.01127 5.33084 2.47509 
5.42967 5.68501 -0.029902 
5.07378 5.45798 -0.025512 
5.36536 5.68974 1.35667 
5.63587 5.20456 0.848882 
5.3294 5.11702 2.54721 
5.95684 5.31853 2.50658 
5.00278 5.68655 -0.017398 
5.29912 5.45387 -0.043569 
5.07815 5.64485 0.484262 
5.99324 5.01619 0.969053 
5.58337 5.51377 -0.036965 
5.11777 5.63404 -0.0463 
5.40235 5.3452 -0.03276 
5.47602 5.48275 -0.029321 
5.60372 5.61301 1.47935 
5.90922 5.00064 1.65284 
5.26115 5.04285 0.171347 
5.14532 5.02246 0.310555 
5.43763 5.35316 0.971133 
5.21066 5.60389 -0.03443 
5.67138 5.15686 0.762196 
5.16369 5.08246 0.592623 
5.07002 5.68254 1.33797 
5.03808 5.32737 2.52847 
5.11027 5.65067 1.38681 
5.39125 5.09265 2.53278 
5.06147 5.55991 0.692915 
5.69191 5.30194 2.32717 
5.61993 5.47659 0.272403 
5.85592 5.239 1.37364 
5.09772 5.6252 1.18221 
5.82501 5.2836 1.3497 
5.5003 5.44344 1.1373 
5.75505 5.0204 0.97207 
5.48922 5.66782 1.20516 
5.44584 5.27559 2.33503 
5.89499 5.01938 0.522183 
5.04398 5.62645 0.756305 
5.82483 5.11552 1.22685 
5.19022 5.13889 0.891172 
5.02227 5.62789 1.08324 
5.8728 5.2969 1.30196 
5.22816 5.00047 0.574447 
5.82827 5.33455 0.237037 
5.31528 5.55747 -0.033589 
5.55964 5.30053 2.33748 
5.01281 5.7326 1.17442 
5.02227 5.62789 1.08324 
5.02616 5.70259 1.24475 
5.55849 5.43185 -0.043213 
5.55669 5.42801 0.807224 
5.79165 5.01533 1.18559 
5.38405 5.59591 -0.043423 
5.86065 5.31903 2.37904 
5.449 5.40434 -0.024181 
5.65455 5.2854 2.59055 
5.13247 5.57695 -0.038262 
5.41566 5.05305 0.749539 
5.1906 5.04817 1.38221 
5.14557 5.50573 1.11186 
5.63367 5.38623 0.676863 
5.22334 5.00322 1.42016 
5.33516 5.32214 2.52089 
5.52699 5.63253 1.24925 
5.25689 5.65193 -0.042697 
5.90915 5.28141 2.42376 
5.21752 5.02741 0.119869 
5.55965 5.55022 1.17748 
5.45481 5.48306 -0.027891 
5.24503 5.32634 2.55589 
5.62964 5.31172 2.35592 
5.618 5.31836 2.57585 
5.17608 5.04776 0.931401 
5.26254 5.02567 1.23213 
5.09637 5.62985 1.25157 
5.20688 5.04151 1.0632 
5.80558 5.13395 1.3854 
5.64367 5.24754 2.62998 
5.50747 5.32111 2.6076 
5.40708 5.32258 2.65046 
5.41639 5.03359 0.663149 
5.71561 5.32158 2.57589 
5.5007 5.30958 2.40539 
5.7393 5.0397 0.956187 
5.64809 5.60131 0.344454 
5.41901 5.01968 1.44857 
5.55097 5.32134 2.48043 
5.73742 5.02918 0.525472 
5.55598 5.31854 2.55242 
5.29503 5.32455 2.71178 
5.19707 5.0287 0.964861 
5.04683 5.00855 0.793089 
5.93301 5.31133 1.70257 
5.68008 5.46879 0.102094 
5.09171 5.51266 0.766094 
5.42588 5.11922 0.762465 
5.28973 5.10411 -0.038116 
5.49894 5.32459 2.64109 
5.00492 5.66887 0.339573 
5.21338 5.11429 1.1725 
5.08012 5.04776 0.591355 
5.11835 5.50842 1.15106 
5.0066 5.65685 0.762962 
5.24809 5.49055 -0.046942 
5.32425 5.55561 -0.035977 
5.01793 5.6743 0.778233 
5.36188 5.46194 -0.036564 
5.00212 5.43903 0.061343 
5.25814 5.0001 0.147836 
5.34631 5.07053 2.63572 
5.14898 5.33594 2.55687 
5.04799 5.65394 0.069566 
5.39223 5.54103 0.450711 
5.1032 5.42623 1.34876 
5.99444 5.31658 2.69034 
5.13247 5.57695 -0.038262 
5.02372 5.64703 1.05105 
5.53347 5.53246 0.754464 
5.69869 5.29036 2.45442 
5.55663 5.27594 2.38605 
5.1032 5.42623 1.34876 
5.2592 5.32551 2.56517 
5.38616 5.14843 2.52253 
5.57718 5.97284 1.26171 
5.35487 5.5826 0.197911 
5.30203 5.31396 2.42946 
5.90076 5.95116 0.39015 
5.98049 5.12946 1.48634 
5.843 5.2797 2.4035 
5.86283 5.36876 1.26728 
5.32762 5.49128 -0.035997 
5.74544 5.07513 1.00266 
5.54427 5.43036 1.21774 
5.45099 5.48263 1.62969 
5.72227 5.17981 1.07515 
5.8189 5.11166 1.16202 
5.17116 5.08199 1.34481 
5.44376 5.32872 0.970546 
5.88611 5.31451 2.57769 
5.11673 5.10192 0.717782 
5.44238 5.50875 0.677287 
5.70704 5.24232 0.418935 
5.54576 5.68471 1.24573 
5.45335 5.50932 -0.035107 
5.23291 5.60695 -0.036654 
5.20476 5.27273 2.39942 
5.02346 5.32425 2.42862 
5.47678 5.32261 -0.035071 
5.01202 5.27843 2.35469 
5.2609 5.22707 0.700094 
5.46419 5.53659 0.711149 
5.03041 5.00289 0.91355 
5.64618 5.31866 2.40327 
5.66392 5.1417 0.738072 
5.09184 5.02236 1.05288 
5.93615 5.17694 1.40807 
5.84324 5.1496 1.24022 
5.83384 5.31522 2.64476 
5.43077 5.00296 0.71063 
5.21693 5.00454 0.436498 
5.28858 5.21799 0.709782 
5.57472 5.61845 1.00417 
5.15278 5.03251 0.269306 
5.8492 5.16961 1.46017 
5.75796 5.38917 1.57439 
5.20683 5.04679 0.239382 
5.16778 5.07096 0.557332 
5.75135 5.34653 1.50974 
5.08898 5.63302 0.560998 
5.36952 5.27536 2.5208 
5.25307 5.15955 0.898999 
5.20232 5.13956 1.09177 
5.06304 5.57971 0.106989 
5.11063 5.52412 1.08472 
5.41839 5.28928 2.52857 
5.44432 5.11378 0.761615 
5.06015 5.59868 0.692968 
5.15999 5.28584 2.46648 
5.38418 5.11408 0.86885 
5.30633 5.3246 2.55136 
5.12666 5.07265 0.989513 
5.10073 5.32806 2.5997 
5.08181 5.55548 0.941301 
5.67079 5.34866 0.462839 
5.13543 5.51188 1.11651 
5.35982 5.07299 2.52425 
5.07343 5.56672 0.910878 
5.10098 5.58644 0.981258 
5.04514 5.41185 0.159911 
5.20264 5.30013 -0.026945 
5.33479 5.17649 0.695644 
5.31427 5.31895 2.64079 
5.40985 5.07391 0.713606 
5.2547 5.02831 1.26944 
5.53881 5.55748 0.789626 
5.80654 5.15551 1.36506 
5.09196 5.68066 0.210728 
5.88488 5.31246 2.47957 
5.79892 5.27675 2.35091 
5.64133 5.33295 2.54035 
5.15941 5.32917 2.65463 
5.05207 5.23382 -0.032338 
5.90076 5.95237 0.521975 
5.80349 5.32796 2.66258 
5.18956 5.18708 0.784796 
5.00132 5.62368 1.1385 
5.24398 5.45904 1.6544 
5.11735 5.16324 0.760558 
5.63899 5.48301 1.50153 
5.54621 5.20935 -0.032978 
5.06709 5.34112 2.65704 
5.42565 5.62672 1.09997 
5.06784 5.30545 2.69138 
5.10674 5.55497 1.13715 
5.06311 5.03 0.563534 
5.18283 5.04972 0.195964 
5.60368 5.58634 0.595938 
5.25979 5.32854 2.70902 
5.35877 5.04879 -0.037097 
5.90412 5.95081 0.479762 
5.95477 5.3988 1.36044 
5.17458 5.46639 1.03944 
5.35411 5.15291 0.67728 
5.51094 5.49168 0.951481 
5.64795 5.36732 0.63682 
5.21227 5.16502 0.960662 
5.23709 5.01205 0.13978 
5.52194 5.67665 0.714828 
5.04901 5.5479 0.526855 
5.01251 5.52804 0.628631 
5.37715 5.10753 0.875813 
5.59414 5.48401 0.408184 
5.40067 5.11829 2.64024 
5.24408 5.67389 -0.040252 
5.03967 5.70488 1.17901 
5.14454 5.52644 -0.043828 
5.09257 5.62895 1.29697 
5.16637 5.32299 2.51573 
5.86736 5.33668 1.25205 
5.31408 5.20684 0.765956 
5.06973 5.56153 1.07041 
5.2504 5.28088 2.52099 
5.25301 5.33178 2.35837 
5.34739 5.19597 0.030839 
5.91557 5.00771 0.515576 
5.84324 5.1496 1.24022 
5.11888 5.09272 0.90962 
5.6445 5.3176 2.5008 
5.23008 5.0241 0.954908 
5.45036 5.35897 0.960092 
5.49594 5.30225 2.64808 
5.62114 5.28781 2.56779 
5.01055 5.65676 0.165197 
5.21015 5.16166 0.932097 
5.14014 5.60843 -0.031381 
5.87967 5.03806 1.21794 
5.65657 5.31408 2.38368 
5.56399 5.47453 -0.035716 
5.45815 5.44429 1.07762 
5.05964 5.65828 1.21549 
5.22939 5.57233 0.313668 
5.05603 5.32999 2.55388 
5.4949 5.53199 1.03125 
5.08929 5.2786 -0.040911 
5.88611 5.31451 2.57769 
5.99013 5.43599 1.46235 
5.37349 5.07011 0.883283 
5.13797 5.04306 1.04928 
5.66714 5.10691 0.842803 
5.05562 5.28653 2.53439 
5.13288 5.55906 1.3953 
5.93456 5.1035 0.516927 
5.01846 5.70715 -0.03023 
5.3119 5.3165 2.44689 
5.04119 5.59536 0.862126 
5.54502 5.58599 0.686865 
5.24384 5.01372 1.417 
5.24457 5.09872 0.981758 
5.42099 5.29808 2.32337 
5.90085 5.05676 1.34035 
5.03482 5.33328 2.62107 
5.07107 5.65891 1.19234 
5.93855 5.43915 1.30271 
5.60368 5.58634 0.595938 
5.96692 5.32055 2.4048 
5.98757 5.3634 1.69007 
5.86014 5.31513 2.59817 
5.37543 5.32469 2.47483 
5.92195 5.03103 1.41081 
5.36654 5.36336 -0.043293 
5.41899 5.71325 1.31421 
5.04518 5.6876 1.3217 
5.17168 5.05896 0.473012 
5.04481 5.57228 0.226736 
5.79111 5.27275 2.37785 
5.60716 5.31654 2.59719 
5.91024 5.31996 2.41767 
5.53342 5.54959 0.943348 
5.89545 5.07529 1.28092 
5.0042 5.42871 0.964146 
5.53762 5.2721 2.61647 
5.20731 5.1398 0.878625 
5.58584 5.28766 2.36104 
5.40374 5.52272 -0.035832 
5.04678 5.49192 -0.019361 
5.72504 5.3287 2.64914 
5.01 5.69149 0.384041 
5.57033 5.52692 0.588389 
5.90401 5.31334 2.45829 
5.53168 5.63699 1.07103 
5.92863 5.40033 1.46804 
5.71329 5.31241 2.35661 
5.38073 5.04465 2.54319 
5.36745 5.36111 -0.034445 
5.16327 5.64662 -0.036453 
5.26076 5.04504 1.01592 
5.07131 5.56105 0.634402 
5.87454 5.03502 1.4035 
5.5007 5.30958 2.40539 
5.91838 5.33056 2.38809 
5.36194 5.32038 2.44944 
5.41166 5.58406 0.445269 
5.31424 5.27254 2.39522 
5.22856 5.06765 1.10553 
5.04678 5.49192 -0.019361 
5.94407 5.07141 0.488282 
5.97945 5.11013 1.48431 
5.88312 5.39078 1.29805 
5.35133 5.32158 2.52412 
5.87496 5.35818 1.28976 
5.37729 5.28343 -0.0277 
5.29055 5.17231 0.80999 
5.5657 5.53439 1.1022 
5.76615 5.31907 2.60964 
5.61854 5.74485 1.13684 
5.33656 5.66223 1.30601 
5.00913 5.33852 2.62219 
5.05021 5.43393 0.245673 
5.8233 5.32269 2.62922 
5.76292 5.31776 2.43952 
5.8594 5.02383 1.16332 
5.98518 5.23602 1.47282 
5.57991 5.49141 1.43099 
5.2744 5.09624 1.15525 
5.07033 5.62919 -0.036523 
5.78539 5.09679 1.18395 
5.06026 5.58557 0.201161 
5.96241 5.02845 1.44371 
5.07002 5.68254 1.33797 
5.594 5.25161 0.915055 
5.04288 5.64981 0.162895 
5.40522 5.46645 0.457668 
5.48144 5.63787 1.20682 
5.85602 5.31039 1.23615 
5.13247 5.57695 -0.038262 
5.1189 5.09589 0.811079 
5.53542 5.43695 1.19967 
5.71358 5.43169 1.51125 
5.13861 5.17217 0.752657 
5.27077 5.32465 2.55435 
5.39125 5.09265 2.53278 
5.97982 5.33739 2.45774 
5.23448 5.12028 0.938869 
5.97997 5.31656 2.57133 
5.74257 5.3202 2.34398 
5.48087 5.32254 2.68795 
5.74158 5.31452 2.41112 
5.35924 5.14405 0.773759 
5.03495 5.60787 0.749386 
5.35982 5.07299 2.52425 
5.14183 5.32922 2.6647 
5.92705 5.32816 2.46012 
5.89545 5.07529 1.28092 
5.21617 5.02396 -0.033296 
5.14704 5.11687 1.23539 
5.9902 5.45293 1.31545 
5.02523 5.1001 -0.019066 
5.08331 5.67537 1.42036 
5.49895 5.31292 0.952348 
5.40029 5.09013 0.78658 
5.45134 5.32207 2.38472 
5.0525 5.59842 0.406503 
5.86502 5.30386 1.39996 
5.01858 5.69334 0.180546 
5.14183 5.32922 2.6647 
5.3307 5.31577 2.41558 
5.69706 5.22531 1.35855 
5.0584 5.62197 1.0952 
5.39093 5.08476 0.866881 
5.07178 5.32629 2.51723 
5.05333 5.44471 1.18381 
5.52931 5.32047 -0.037119 
5.89407 5.00485 0.521966 
5.07378 5.45798 -0.025512 
5.86742 5.31736 2.48514 
5.53382 5.68163 1.33643 
5.70495 5.3065 0.411106 
5.16945 5.33443 2.55802 
5.21463 5.37901 0.819963 
5.52241 5.66627 1.15915 
5.3145 5.26342 2.66354 
5.52931 5.32047 -0.037119 
5.01281 5.7326 1.17442 
5.45326 5.31725 2.50905 
5.78232 5.07378 1.03969 
5.22613 5.09818 1.01422 
5.06108 5.0656 0.92867 
5.17053 5.2844 2.40443 
5.92723 5.28551 2.51597 
5.51388 5.31715 2.54669 
5.00232 5.65331 -0.012378 
5.38809 5.0984 0.706888 
5.13722 5.16896 -0.037371 
5.40522 5.46645 0.457668 
5.36452 5.68363 1.33223 
5.12181 5.62411 1.42042 
5.23618 5.52633 -0.041852 
5.1611 5.32653 2.61944 
5.8392 5.31824 2.57335 
5.48972 5.57252 1.65131 
5.18554 5.0928 0.828225 
5.20379 5.1129 1.30263 
5.04934 5.60413 0.493395 
5.06693 5.67731 1.27511 
5.92195 5.03103 1.41081 
5.31763 5.33613 -0.036038 
5.424 5.33067 2.55457 
5.91533 5.26232 1.36093 
5.84257 5.20932 1.21514 
5.8706 5.08238 1.09069 
5.42856 5.48195 -0.026686 
5.59893 5.31175 2.48373 
5.06348 5.45918 0.2262 
5.22952 5.14727 0.940722 
5.04251 5.53981 0.332391 
5.53477 5.54787 0.655069 
5.95932 5.32109 2.59936 
5.50383 5.50877 -0.03424 
5.89511 5.09972 1.34242 
5.57092 5.39164 1.27494 
5.79112 5.32394 2.64963 
5.42785 5.38103 -0.031412 
5.28528 5.3165 2.40397 
5.02128 5.33421 2.3752 
5.54981 5.39155 -0.03165 
5.14845 5.3196 2.46168 
5.60246 5.32507 2.52431 
5.82679 5.26079 1.26295 
5.0905 5.64474 0.068577 
5.55174 5.31617 2.68429 
5.13527 5.1 0.607115 
5.05527 5.01491 0.962621 
5.03822 5.40997 1.16854 
5.52377 5.28312 2.50598 
5.08817 5.32194 2.47791 
5.04554 5.6391 0.324422 
5.89475 5.15041 0.502811 
5.35373 5.27088 2.39031 
5.26637 5.62138 1.33362 
5.19366 5.27668 2.41525 
5.10161 5.55788 -0.047848 
5.46951 5.28807 2.50333 
5.44731 5.4161 1.73252 
5.41126 5.06141 2.52444 
5.7654 5.26347 1.65199 
5.08183 5.53874 0.844528 
5.05705 5.61829 0.572915 
5.35924 5.14405 0.773759 
5.62293 5.32682 2.62945 
5.42142 5.5187 0.709699 
5.62599 5.42162 0.664234 
5.27331 5.13234 1.13903 
5.89678 5.38408 1.28316 
5.88653 5.32155 2.55481 
5.34635 5.41051 -0.044667 
5.78408 5.33361 2.34907 
5.1623 5.33039 2.3621 
5.01895 5.46484 0.627371 
5.29288 5.60247 1.2094 
5.01948 5.62822 1.52125 
5.0518 5.47406 0.967087 
5.16232 5.3341 2.57925 
5.35499 5.48514 -0.03197 
5.79112 5.32394 2.64963 
5.21586 5.00134 0.469605 
5.55923 5.34216 0.871684 
5.00691 5.51801 0.744958 
5.23436 5.2951 2.47041 
5.37904 5.60001 0.200373 
5.15178 5.66721 1.21058 
5.18283 5.04972 0.195964 
5.03679 5.01344 0.859934 
5.84148 5.2819 1.45035 
5.61885 5.28808 1.35335 
5.03988 5.00492 1.03656 
5.67163 5.29957 2.36471 
5.00742 5.52144 0.628963 
5.13407 5.19768 2.72787 
5.36237 5.17642 0.744722 
5.24985 5.12458 0.960707 
5.50937 5.41452 1.52184 
5.06517 5.60335 0.869611 
5.9141 5.00337 1.6969 
5.02502 5.604 0.597732 
5.16391 5.62194 1.20723 
5.20125 5.46386 0.972756 
5.37801 5.34098 -0.032615 
5.06099 5.04014 0.738804 
5.16203 5.53789 0.433085 
5.53475 5.2736 0.956902 
5.32719 5.14685 2.55681 
5.98012 5.32389 2.38444 
5.85986 5.29882 1.23521 
5.39564 5.65998 1.22748 
5.92469 5.41304 1.34134 
5.81837 5.32081 2.52674 
5.43827 5.10501 -0.01917 
5.89978 5.27964 1.53856 
5.00263 5.31492 2.47575 
5.05079 5.30421 -0.01277 
5.04176 5.63501 1.53883 
5.84173 5.02298 1.09176 
5.00601 5.30299 -0.014794 
5.86037 5.06684 1.23175 
5.45973 5.00757 0.808562 
5.01447 5.63944 0.12445 
5.71713 5.17264 0.959047 
5.14262 5.31977 2.47218 
5.9429 5.31944 1.36685 
5.33752 5.33064 2.52587 
5.86492 5.00484 1.11927 
5.10316 5.31992 2.63212 
5.03859 5.6251 1.51892 
5.01976 5.31568 2.38833 
5.54772 5.73153 1.05077 
5.01856 5.09358 1.14318 
5.07107 5.65891 1.19234 
5.73741 5.21734 0.446357 
5.3343 5.0718 2.52787 
5.26083 5.04697 1.36062 
5.00314 5.62255 0.166266 
5.74158 5.31452 2.41112 
5.53488 5.50986 1.53448 
5.06984 5.62308 0.978095 
5.18722 5.0069 0.124068 
5.87967 5.03806 1.21794 
5.23734 5.15557 0.706658 
5.52815 5.44709 -0.040971 
5.92262 5.05158 0.509038 
5.3097 5.46003 0.839515 
5.18787 5.5336 -0.044928 
5.87325 5.28382 2.51167 
5.38881 5.32309 2.51347 
5.23339 5.1284 1.15766 
5.58111 5.43789 1.43435 
5.23291 5.60695 -0.036654 
5.04678 5.49192 -0.019361 
5.25397 5.0489 1.14962 
5.86261 5.33511 2.32982 
5.13722 5.16896 -0.037371 
5.14642 5.06042 0.984712 
5.28634 5.32177 2.70379 
5.05947 5.51418 0.553026 
5.80957 5.27068 0.218198 
5.09896 5.572 1.11264 
5.87056 5.11698 1.09592 
5.0881 5.06186 0.945362 
5.89545 5.07529 1.28092 
5.20284 5.13412 1.23324 
5.88443 5.3752 1.51553 
5.84913 5.17099 1.2913 
5.25208 5.05166 1.09716 
5.18722 5.0069 0.124068 
5.55994 5.38242 0.796707 
5.40031 5.07666 0.866861 
5.12696 5.29832 2.70986 
5.53896 5.70662 1.11968 
5.01014 5.6733 0.283285 
5.26582 5.14053 1.1397 
5.05008 5.53549 0.52681 
5.53635 5.65105 0.984509 
5.09246 5.28713 2.38062 
5.04314 5.51304 -0.025007 
5.99477 5.00772 0.997308 
5.28785 5.55639 1.60032 
5.55112 5.55087 -0.038162 
5.9005 5.25298 1.62571 
5.33321 5.19695 0.694507 
5.01487 5.65323 0.681517 
5.26639 5.00373 0.124304 
5.36237 5.17642 0.744722 
5.02679 5.6329 0.31288 
5.15419 5.12211 0.713477 
5.16685 5.48607 1.37296 
5.21267 5.02681 0.570706 
5.16131 5.61147 0.81545 
5.20409 5.1462 0.971943 
5.2971 5.61552 1.47737 
5.0602 5.31149 -0.010286 
5.5559 5.61572 0.683971 
5.29814 5.02325 1.41144 
5.79376 5.2404 1.21429 
5.06238 5.02036 0.678562 
5.14845 5.3196 2.46168 
5.38532 5.31434 2.33163 
5.25643 5.02849 0.147057 
5.87844 5.3657 1.49884 
5.11636 5.61068 1.428 
5.09369 5.07668 0.489134 
5.00688 5.58001 0.035695 
5.03679 5.01344 0.859934 
5.84148 5.2819 1.45035 
5.20862 5.12784 1.24843 
5.33078 5.55552 1.05817 
5.01038 5.28981 2.48594 
5.07378 5.45798 -0.025512 
5.5405 5.69466 1.06077 
5.45911 5.38927 -0.021521 
5.23468 5.15507 1.07688 
5.21267 5.31705 2.35826 
5.59367 5.32569 0.64531 
5.74457 5.30781 2.65615 
5.78539 5.09679 1.18395 
5.43178 5.14171 2.5114 
5.39871 5.55463 0.453557 
5.06471 5.61368 0.956304 
5.57268 5.35677 1.2788 
5.14272 5.51038 -0.025767 
5.16778 5.07096 0.557332 
5.84546 5.03588 1.12075 
5.27077 5.32465 2.55435 
5.3365 5.67562 1.38717 
5.21215 5.47422 1.19555 
5.11101 5.64332 1.21513 
5.01827 5.472 0.543973 
5.84546 5.03588 1.12075 
5.23344 5.58192 -0.042879 
5.21198 5.02323 0.435994 
5.66914 5.32198 2.61967 
5.36452 5.5055 0.835382 
5.57235 5.60303 0.697661 
5.36378 5.52396 0.191018 
5.0383 5.44103 0.98018 
5.06657 5.63264 0.352014 
5.37536 5.13501 2.51576 
5.82463 5.00055 1.68231 
5.91181 5.10858 0.517808 
5.12004 5.31123 -0.043291 
5.19982 5.53422 -0.038315 
5.47842 5.32788 2.53377 
5.2448 5.02351 0.305052 
5.20264 5.30013 -0.026945 
5.02684 5.64122 0.659632 
5.77803 5.32473 2.57758 
5.25841 5.17935 0.878022 
5.81608 5.08373 0.52246 
5.3658 5.65968 1.25417 
5.84316 5.31529 2.54899 
5.85206 5.32909 2.40463 
5.09814 5.54998 0.978705 
5.64043 5.20673 0.741945 
5.52475 5.27708 2.38843 
5.65152 5.46385 1.49261 
5.12804 5.2683 -0.038815 
5.02354 5.65709 1.09601 
5.05527 5.01491 0.962621 
5.23709 5.01205 0.13978 
5.89997 5.27191 1.61957 
5.82851 5.2438 1.29804 
5.55864 5.34956 1.21167 
5.18639 5.04067 0.586232 
5.91873 5.28442 2.44617 
5.04534 5.63266 0.408761 
5.1401 5.60993 1.40678 
5.05319 5.00284 1.05144 
5.01603 5.63317 0.528009 
5.76979 5.21036 2.60092 
5.04114 5.52124 0.686702 
5.37536 5.13501 2.51576 
5.73126 5.25716 0.343463 
5.54142 5.52798 1.34312 
5.02514 5.6709 0.049538 
5.18333 5.05269 1.04552 
5.14308 5.54136 1.20367 
5.14305 5.10774 0.716074 
5.21414 5.32419 2.56932 
5.29912 5.47354 0.895673 
5.04067 5.65365 0.095664 
5.73331 5.07953 0.983484 
5.64343 5.28653 0.098307 
5.09184 5.62474 -0.036324 
5.25682 5.07058 1.23209 
5.86377 5.0841 1.2951 
5.06245 5.67114 0.045763 
5.57363 5.32869 2.5483 
5.12778 5.52007 1.37386 
5.96861 5.33125 1.35929 
5.47603 5.46422 -0.025438 
5.1971 5.06197 1.10252 
5.35625 5.09996 0.880674 
5.16319 5.46953 1.17332 
5.04741 5.55397 -0.036648 
5.90238 5.18077 1.34716 
5.35481 5.16413 0.887099 
5.81956 5.26394 1.21723 
5.25657 5.02097 0.240854 
5.83358 5.07607 1.08134 
5.14872 5.13194 0.674391 
5.23703 5.04236 1.05995 
5.01688 5.66842 0.314543 
5.46244 5.29217 2.51897 
5.46711 5.61083 0.943795 
5.87496 5.35818 1.28976 
5.14756 5.54317 0.578249 
5.04034 5.00746 0.841547 
5.39165 5.1427 0.847458 
5.23706 5.03989 0.233666 
5.2907 5.65241 -0.037009 
5.04597 5.64246 -0.032495 
5.09129 5.07233 0.927025 
5.16597 5.07524 1.00738 
5.18774 5.06324 1.36272 
5.62548 5.32198 2.46413 
5.93056 5.31658 2.56776 
5.51764 5.28705 2.53393 
5.08505 5.1623 -0.03541 
5.64943 5.10665 0.788343 
5.6348 5.26646 0.550373 
5.87977 5.36548 1.34806 
5.88488 5.31246 2.47957 
5.18383 5.32315 2.38629 
5.4096 5.60523 -0.035565 
5.62392 5.32079 2.43529 
5.08345 5.6088 0.115417 
5.47671 5.54459 -0.040636 
5.26552 5.33684 -0.035964 
5.07923 5.2869 2.68764 
5.80957 5.27068 0.218198 
5.07305 5.42907 1.10851 
5.81187 5.31653 2.54988 
5.27505 5.02043 0.18019 
5.62806 5.56284 -0.037686 
5.5386 5.70236 1.24136 
5.18466 5.31724 2.4737 
5.30905 5.20027 0.737391 
5.52966 5.28321 2.73862 
5.63907 5.30695 2.34471 
5.3716 5.57963 -0.043028 
5.1734 5.04124 0.286232 
5.2609 5.22707 0.700094 
5.39808 5.10193 0.802345 
5.26115 5.04285 0.171347 
5.80812 5.21326 1.16419 
5.66257 5.6067 0.45242 
5.34855 5.49485 -0.046003 
5.10795 5.50234 -0.038949 
5.06794 5.65301 0.215394 
5.74756 5.16171 1.073 
5.74739 5.31779 2.57864 
5.35961 5.43708 -0.039506 
5.57718 5.97284 1.26171 
5.00166 5.64784 -0.033239 
5.98711 5.40392 1.33007 
5.76233 5.31736 2.38562 
5.21267 5.31705 2.35826 
5.11844 5.64127 1.19999 
5.94967 5.23785 1.41127 
5.13464 5.11197 1.15674 
5.38532 5.31434 2.33163 
5.8334 5.29223 1.36658 
5.10741 5.56988 -0.043627 
5.50323 5.27889 2.31546 
5.43597 5.56058 0.824523 
5.45479 5.02094 0.810247 
5.0396 5.63155 0.092137 
5.88223 5.32979 2.39992 
5.89206 5.26837 2.5787 
5.10876 5.41989 1.11082 
5.20769 5.57816 0.111435 
5.16861 5.48005 -0.02562 
5.69495 5.32213 2.45024 
5.27436 5.62282 1.30326 
5.27714 5.62388 1.43249 
5.41325 5.05586 0.856766 
5.25449 5.50138 -0.045138 
5.10403 5.61492 1.18199 
5.11649 5.33533 2.5769 
5.73438 5.3613 0.397001 
5.78805 5.07638 1.06634 
5.04795 5.37777 -0.04279 
5.4938 5.27649 2.75722 
5.60372 5.61301 1.47935 
5.67589 5.37192 0.671672 
5.1685 5.08154 1.09699 
5.42272 5.51089 0.38565 
5.4327 5.02842 -0.036073 
5.13722 5.56108 1.24915 
5.59816 5.3243 1.35282 
5.54718 5.31988 2.37652 
5.8899 5.09991 0.482756 
5.15883 5.0465 1.36711 
5.59367 5.32569 0.64531 
5.36556 5.32241 2.5469 
5.12551 5.46222 1.10422 
5.54817 5.63134 0.819999 
5.98738 5.28015 2.48952 
5.65424 5.0199 1.42662 
5.88699 5.39662 1.33883 
5.0396 5.63155 0.092137 
5.58294 5.31179 2.69616 
5.17808 5.53556 1.37439 
5.43595 5.07877 -0.020912 
5.03751 5.69321 1.2151 
5.88258 5.20529 1.36428 
5.00599 5.6916 0.56887 
5.0396 5.63155 0.092137 
5.24983 5.11826 0.819714 
5.93164 5.43966 1.3226 
5.701 5.20522 1.12001 
5.33588 5.14173 2.62707 
5.3257 5.12383 0.861638 
5.39165 5.1427 0.847458 
5.28528 5.3165 2.40397 
5.28688 5.32796 2.6026 
5.23028 5.32502 2.47723 
5.00212 5.43903 0.061343 
5.00177 5.65853 0.824257 
5.28528 5.3165 2.40397 
5.91399 5.3084 1.61053 
5.32192 5.2811 2.56854 
5.62647 5.27483 2.38405 
5.00913 5.33852 2.62219 
5.54023 5.4865 0.836797 
5.09469 5.0967 0.680313 
5.04513 5.41735 1.31479 
5.19975 5.33195 2.51458 
5.58113 5.27609 0.888898 
5.6348 5.31621 1.43591 
5.60303 5.02842 1.43585 
5.41182 5.00423 0.829027 
5.43551 5.33532 -0.02663 
5.13314 5.02927 1.07342 
5.88488 5.31246 2.47957 
5.51183 5.31717 2.56803 
5.45134 5.32207 2.38472 
5.13288 5.55906 1.3953 
5.21422 5.42286 0.959227 
5.65865 5.36567 0.534151 
5.2698 5.17786 0.803685 
5.3119 5.3165 2.44689 
5.18044 5.55709 0.050183 
5.01987 5.64731 0.22229 
5.53014 5.31835 2.40371 
5.06507 5.02739 0.958754 
5.84579 5.25261 1.39777 
5.57991 5.49141 1.43099 
5.26215 5.16517 0.687451 
5.39597 5.64309 0.180363 
5.53382 5.68163 1.33643 
5.07343 5.56672 0.910878 
5.02389 5.58174 0.522252 
5.52377 5.28312 2.50598 
5.01803 5.4573 0.686107 
5.07648 5.08133 0.626961 
5.98012 5.32389 2.38444 
5.56725 5.31561 0.892982 
5.1684 5.06841 0.478279 
5.63123 5.57085 0.255958 
5.00513 5.42743 0.62364 
5.93615 5.17694 1.40807 
5.45973 5.00757 0.808562 
5.21462 5.4854 -0.034567 
5.0646 5.56609 0.678088 
5.03679 5.01344 0.859934 
5.81886 5.21323 2.58384 
5.84988 5.30181 2.35599 
5.26076 5.04504 1.01592 
5.01478 5.64572 0.548958 
5.71253 5.31411 2.38917 
5.52351 5.60357 1.33944 
5.67413 5.3315 2.53438 
5.15733 5.10165 0.60433 
5.18957 5.28427 2.53696 
5.704 5.28141 2.59117 
5.81608 5.08373 0.52246 
5.19879 5.23357 0.747863 
5.16658 5.17611 0.784189 
5.91724 5.05745 1.40669 
5.7167 5.32071 2.55378 
5.23709 5.01205 0.13978 
5.33608 5.23021 2.58172 
5.29149 5.0843 -0.030463 
5.01617 5.52813 0.039009 
5.41882 5.04619 0.749085 
5.77652 5.11483 1.10849 
5.53382 5.68163 1.33643 
5.41901 5.01968 1.44857 
5.57803 5.30679 2.34525 
5.22138 5.03168 0.404385 
5.10558 5.59484 0.778942 
5.87977 5.36548 1.34806 
5.04288 5.64981 0.162895 
5.85197 5.11603 1.13692 
5.01181 5.75629 1.23983 
5.86889 5.09687 1.12721 
5.24055 5.33112 2.61899 
5.01097 5.4142 1.11196 
5.1852 5.06436 0.357108 
5.95052 5.4105 1.31038 
5.66545 5.19445 0.755809 
5.41273 5.32984 2.5092 
5.06047 5.06964 0.519811 
5.83721 5.32726 2.40789 
5.37603 5.26116 -0.026187 
5.78027 5.0613 1.12902 
5.38552 5.7062 1.35514 
5.08618 5.64691 -0.004631 
5.36483 5.68934 1.44723 
5.92262 5.05158 0.509038 
5.61854 5.74485 1.13684 
5.13541 5.45915 1.22686 
5.12534 5.05011 1.0288 
5.24845 5.03516 0.231019 
5.37801 5.34098 -0.032615 
5.5227 5.6698 1.24467 
5.05543 5.663 1.25348 
5.51731 5.54697 0.507757 
5.06149 5.47803 0.0753 
5.43202 5.31845 2.50811 
5.47853 5.32352 2.45715 
5.62622 5.22358 0.728688 
5.48196 5.58414 0.705139 
5.67222 5.16638 0.786545 
5.35145 5.67277 1.45476 
5.8899 5.09991 0.482756 
5.92546 5.27347 2.32989 
5.45124 5.41872 0.956744 
5.33329 5.18879 0.872639 
5.86742 5.31736 2.48514 
5.02249 5.62698 0.592268 
5.21198 5.02323 0.435994 
5.09297 5.62188 1.27967 
5.96436 5.3202 2.57504 
5.67148 5.17186 0.727782 
5.81184 5.26644 1.31739 
5.04869 5.63129 1.06636 
5.38838 5.33286 2.56958 
5.4122 5.12041 2.50455 
5.06619 5.62769 0.08265 
5.93234 5.32117 2.48582 
5.86947 5.31937 2.57406 
5.62078 5.4203 0.695788 
5.42402 5.03039 0.818187 
5.99099 5.44067 1.32216 
5.24543 5.28834 2.43523 
5.50946 5.21778 2.66151 
5.22587 5.09094 0.957285 
5.56798 5.2668 -0.0345 
5.37749 5.03173 -0.030046 
5.46244 5.29217 2.51897 
5.89107 5.32307 2.639 
5.0004 5.67389 0.633572 
5.71076 5.14843 0.915204 
5.91024 5.31996 2.41767 
5.80558 5.13395 1.3854 
5.95297 5.2776 2.48022 
5.16022 5.60319 1.37987 
5.34167 5.09914 2.57076 
5.31711 5.14181 0.886157 
5.02428 5.63973 0.382067 
5.10006 5.60983 1.10781 
5.37835 5.53071 0.86953 
5.21227 5.16502 0.960662 
5.13722 5.56108 1.24915 
5.9078 5.32507 2.37694 
5.52111 5.31681 2.54486 
5.06549 5.71746 1.21994 
5.21267 5.02681 0.570706 
5.26565 5.29219 2.44088 
5.0773 5.06382 -0.009452 
5.6708 5.58599 0.211968 
5.36257 5.27517 2.42629 
5.92667 5.25975 1.71703 
5.82465 5.12628 1.44571 
5.69431 5.40895 0.394229 
5.77337 5.27256 2.59957 
5.23291 5.60695 -0.036654 
5.34739 5.19597 0.030839 
5.04305 5.63654 0.206809 
5.06881 5.59813 0.333753 
5.90532 5.27612 2.60336 
5.38192 5.4072 -0.039515 
5.96396 5.05841 0.486044 
5.32422 5.32401 2.49276 
5.88821 5.3315 2.39179 
5.00131 5.53242 0.697134 
5.62685 5.32175 2.67429 
5.40576 5.05382 0.670147 
5.48521 5.27143 2.46089 
5.21149 5.09848 0.956935 
5.02217 5.50457 0.30941 
5.582 5.30819 2.38672 
5.06894 5.6558 0.18752 
5.47448 5.50451 -0.031245 
5.31107 5.57675 1.12569 
5.02818 5.57539 0.939539 
5.05312 5.60892 0.230141 
5.3525 5.62322 -0.03263 
5.72398 5.31579 2.34613 
5.75119 5.098 1.02098 
5.41948 5.04323 0.85587 
5.44057 5.12444 2.51219 
5.01825 5.0505 1.55001 
5.02355 5.70408 1.12372 
5.82827 5.33455 0.237037 
5.02346 5.32425 2.42862 
5.026 5.67266 0.452153 
5.24124 5.13406 0.960805 
5.4517 5.57787 0.954539 
5.11936 5.44118 1.39292 
5.22587 5.09094 0.957285 
5.62105 5.58403 0.496858 
5.13913 5.60463 1.37949 
5.95708 5.32085 2.52801 
5.66675 5.32086 2.53575 
5.65287 5.5541 1.55213 
5.39942 5.54764 0.924093 
5.0847 5.64909 0.275407 
5.09136 5.61748 0.547887 
5.13105 5.53336 1.2947 
5.01514 5.6425 0.116125 
5.55228 5.4249 1.27248 
5.76982 5.03622 0.521498 
5.37543 5.32469 2.47483 
5.91697 5.27481 2.61691 
5.57743 5.28422 2.54765 
5.79311 5.43141 1.69739 
5.43007 5.32393 2.44906 
5.07004 5.51305 0.166276 
5.43498 5.47966 0.708252 
5.20547 5.04398 0.444558 
5.37751 5.53292 0.27251 
5.43616 5.26754 -0.024748 
5.33856 5.2738 2.37751 
5.09184 5.02236 1.05288 
5.84381 5.31907 2.62099 
5.62058 5.58157 1.49062 
5.05899 5.6208 0.554047 
5.26626 5.0165 0.217037 
5.24953 5.12782 1.24634 
5.23261 5.20027 0.709392 
5.2862 5.41681 0.798 
5.13812 5.5876 1.19434 
5.03309 5.28732 1.20835 
5.81024 5.09131 1.16282 
5.53488 5.50986 1.53448 
5.48526 5.342 1.0986 
5.10006 5.60983 1.10781 
5.04114 5.52124 0.686702 
5.07435 5.65841 0.16171 
5.53168 5.63929 1.03362 
5.96167 5.43184 1.30813 
5.18137 5.51287 1.18753 
5.17116 5.08199 1.34481 
5.35399 5.14189 2.62378 
5.32218 5.20865 0.877876 
5.67138 5.15686 0.762196 
5.5386 5.70236 1.24136 
5.86736 5.33668 1.25205 
5.61406 5.30621 2.34097 
5.29934 5.20629 2.69762 
5.21521 5.07398 1.01383 
5.71329 5.31241 2.35661 
5.8392 5.31824 2.57335 
5.41408 5.43947 1.01045 
5.6579 5.27353 2.35733 
5.02712 5.68285 1.1581 
5.52896 5.14183 -0.02519 
5.17313 5.11311 1.10517 
5.00492 5.66887 0.339573 
5.43198 5.4358 1.7342 
5.35616 5.32487 2.51038 
5.40374 5.63158 1.15329 
5.3741 5.62839 -0.043681 
5.02041 5.62675 0.559019 
5.07729 5.56219 0.460224 
5.272 5.68752 -0.037092 
5.18216 5.32868 2.55533 
5.01418 5.74561 1.32151 
5.07105 5.64552 0.769222 
5.55756 5.3127 2.69399 
5.18399 5.50345 -0.037559 
5.55964 5.30053 2.33748 
5.79362 5.29126 2.4791 
5.78866 5.15383 1.34693 
5.46286 5.52898 1.63957 
5.2352 5.12554 -0.022248 
5.06383 5.60676 1.04696 
5.41919 5.40942 1.02314 
5.41648 5.28352 2.49794 
5.07774 5.6494 1.30057 
5.1924 5.05428 0.61219 
5.09419 5.57198 0.559486 
5.55087 5.32878 2.54899 
5.45335 5.50932 -0.035107 
5.40501 5.32549 2.60116 
5.5752 5.31221 2.36153 
5.42915 5.0189 0.848177 
5.90416 5.94849 0.562289 
5.36173 5.62606 1.18474 
5.20548 5.05268 0.978297 
5.94927 5.27196 2.60597 
5.01397 5.71432 0.803772 
5.67519 5.17826 0.813932 
5.50533 5.46125 1.12512 
5.00348 5.72305 1.43785 
5.0525 5.59842 0.406503 
5.33487 5.33754 2.69983 
5.76615 5.31907 2.60964 
5.06357 5.03508 0.910495 
5.25505 5.32127 2.3769 
5.40719 5.14051 2.55367 
5.60535 5.23643 0.959144 
5.09469 5.0967 0.680313 
5.00183 5.62584 0.811046 
5.42645 5.46399 1.03616 
5.02603 5.2827 2.55326 
5.07001 5.65405 1.11513 
5.00348 5.72305 1.43785 
5.026 5.67266 0.452153 
5.05514 5.66521 1.00219 
5.11936 5.44118 1.39292 
5.04442 5.62833 0.460145 
5.59205 5.26433 2.43698 
5.22205 5.13283 1.01429 
5.18924 5.00956 1.28265 
5.16826 5.61383 1.33592 
5.54187 5.31314 2.40659 
5.82465 5.12628 1.44571 
5.36952 5.27536 2.5208 
5.1885 5.04921 0.469166 
5.88346 5.38553 1.53251 
5.38694 5.15127 0.856493 
5.3365 5.67562 1.38717 
5.13566 5.53702 -0.042484 
5.97945 5.11013 1.48431 
5.88887 5.22909 1.36675 
5.89138 5.28307 2.40135 
5.07796 5.54877 0.63085 
5.58455 5.42155 1.43235 
5.424 5.33067 2.55457 
5.16963 5.32798 2.51388 
5.75282 5.32266 2.52429 
5.01895 5.46484 0.627371 
5.28736 5.31996 -0.03334 
5.39058 5.70794 1.3308 
5.5386 5.70236 1.24136 
5.53032 5.6153 1.25038 
5.09393 5.31052 2.46513 
5.82312 5.22205 1.32527 
5.04082 5.55574 0.223321 
5.55671 5.63189 1.0192 
5.10922 5.60427 1.29378 
5.11455 5.52771 1.24947 
5.26828 5.26722 2.64429 
5.60662 5.26641 0.669645 
5.07378 5.45798 -0.025512 
5.00314 5.62255 0.166266 
5.01182 5.32911 2.46301 
5.84301 5.99731 0.498149 
5.16314 5.05419 0.966837 
5.11821 5.31106 2.69489 
5.33656 5.66223 1.30601 
5.04597 5.64246 -0.032495 
5.03592 5.36736 0.788746 
5.3257 5.12383 0.861638 
5.35271 5.33727 2.71923 
5.06767 5.47727 0.748624 
5.32413 5.4887 1.76324 
5.6125 5.31448 0.576073 
5.00828 5.67894 0.194529 
5.00492 5.66887 0.339573 
5.11769 5.03508 1.05076 
5.01447 5.63944 0.12445 
5.86497 5.32619 1.43286 
5.24048 5.02164 0.375693 
5.5226 5.63355 1.33786 
5.21952 5.28872 2.44018 
5.0452 5.61821 1.02909 
5.55256 5.32417 2.62651 
5.04251 5.21815 -0.035923 
5.13247 5.57695 -0.038262 
5.06156 5.63352 0.885924 
5.07124 5.51474 0.751401 
5.31764 5.10712 -0.026785 
5.20859 5.00477 0.036946 
5.45124 5.41872 0.956744 
5.28069 5.17625 0.83496 
5.93234 5.32117 2.48582 
5.08946 5.58173 0.562273 
5.24111 5.09813 0.939739 
5.02081 5.72569 1.1942 
5.96167 5.43184 1.30813 
5.28175 5.32335 2.47716 
5.36576 5.12383 0.69829 
5.61854 5.74485 1.13684 
5.09362 5.3331 2.57555 
5.03781 5.3392 2.69038 
5.00278 5.68655 -0.017398 
5.15597 5.01958 1.37984 
5.63346 5.25508 0.585252 
5.01055 5.65676 0.165197 
5.36281 5.04717 0.944293 
5.55471 5.31808 2.52554 
5.53342 5.54959 0.943348 
5.29055 5.17231 0.80999 
5.12745 5.06253 1.01603 
5.43616 5.26754 -0.024748 
5.23886 5.16991 0.84317 
5.09637 5.62985 1.25157 
5.46482 5.14511 0.754066 
5.02161 5.5638 0.938433 
5.17901 5.13444 1.2188 
5.65595 5.60983 0.558717 
5.18459 5.14633 0.833919 
5.49503 5.67751 1.224 
5.38726 5.02232 2.49161 
5.935 5.31277 2.36384 
5.69928 5.3167 2.48329 
5.05913 5.5296 0.669042 
5.24211 5.14681 0.961639 
5.96167 5.43184 1.30813 
5.67519 5.17826 0.813932 
5.94215 5.45026 1.36355 
5.38825 5.27309 2.38563 
5.18399 5.50345 -0.037559 
5.31408 5.20684 0.765956 
5.36635 5.49569 0.188288 
5.10073 5.32806 2.5997 
5.93615 5.17694 1.40807 
5.09804 5.57716 1.15367 
5.12294 5.15921 -0.034603 
5.37675 5.33722 2.50919 
5.0173 5.7155 0.801018 
5.17313 5.11311 1.10517 
5.88223 5.32979 2.39992 
5.10211 5.68523 1.21685 
5.1707 5.06919 1.35845 
5.52584 5.50246 1.26345 
5.5187 5.70282 0.788933 
5.26082 5.10376 -0.027404 
5.91565 5.00691 1.33965 
5.25459 5.10369 1.07766 
5.67004 5.09313 0.876723 
5.39762 5.01176 -0.029556 
5.1216 5.32071 2.36308 
5.33027 5.19434 0.721346 
5.2855 5.26901 2.66135 
5.71703 5.31631 2.6709 
5.6371 5.53997 1.54892 
5.41924 5.51127 0.439245 
5.04062 5.32901 2.46448 
5.06334 5.43972 1.0754 
5.11978 5.65389 1.34209 
5.21174 5.20112 0.704196 
5.25564 5.62793 -0.042794 
5.23532 5.33201 2.65167 
5.67138 5.15686 0.762196 
5.46652 5.71887 1.33415 
5.23761 5.32901 2.48757 
5.57447 5.41942 -0.040682 
5.0872 5.00613 0.415981 
5.3365 5.67562 1.38717 
5.21517 5.07602 1.04391 
5.95479 5.2751 2.42967 
5.04454 5.69295 1.43485 
5.45326 5.31725 2.50905 
5.55695 5.56028 0.932596 
5.96316 5.00835 1.18497 
5.06619 5.58327 0.694128 
5.58948 5.31984 0.66332 
5.79294 5.13744 1.15947 
5.12004 5.31123 -0.043291 
5.94927 5.27196 2.60597 
5.08898 5.63302 0.560998 
5.66471 5.14864 0.720584 
5.0453 5.54251 0.304404 
5.93467 5.41246 1.29312 
5.22939 5.57233 0.313668 
5.14098 5.65266 0.381856 
5.10491 5.5278 0.988779 
5.20409 5.1462 0.971943 
5.31137 5.03769 1.3456 
5.35555 5.5816 -0.042647 
5.06031 5.51563 0.068116 
5.79752 5.14655 0.496833 
5.02615 5.65363 1.48933 
5.05823 5.55753 0.167969 
5.02141 5.63187 0.421151 
5.8398 5.02328 0.510347 
5.2994 5.02187 1.24819 
5.22154 5.15162 0.899518 
5.04978 5.52886 0.229185 
5.18783 5.03768 1.06576 
5.97919 5.40742 1.49735 
5.00395 5.59781 1.59389 
5.16024 5.05334 -0.033523 
5.09601 5.04359 1.40432 
5.23703 5.04236 1.05995 
5.08452 5.599 0.970582 
5.47671 5.54459 -0.040636 
5.06178 5.60573 0.463093 
5.07155 5.67548 1.20142 
5.16668 5.28281 0.972495 
5.23886 5.31464 2.51907 
5.16748 5.11192 1.15226 
5.08556 5.4709 1.39553 
5.05831 5.61171 0.387526 
5.00749 5.32391 2.63652 
5.38177 5.3365 2.51903 
5.27568 5.02287 1.39757 
5.4949 5.53199 1.03125 
5.82312 5.22205 1.32527 
5.90935 5.27563 2.38181 
5.13536 5.77326 -0.034305 
5.42915 5.0189 0.848177 
5.74544 5.07513 1.00266 
5.31239 5.33084 2.65962 
5.92705 5.32816 2.46012 
5.3886 5.09888 0.872913 
5.2422 5.31496 -0.028179 
5.0481 5.62876 0.663213 
5.52023 5.52697 -0.044433 
5.64915 5.31718 2.47796 
5.47731 5.31586 2.40509 
5.2994 5.02187 1.24819 
5.06383 5.60676 1.04696 
5.4075 5.04366 -0.02884 
5.82869 5.16051 0.50817 
5.09679 5.53419 -0.007605 
5.0669 5.27645 2.45855 
5.46504 5.32372 2.47828 
5.22585 5.04 0.354422 
5.78936 5.31682 2.45844 
5.09311 5.27581 2.664 
5.88292 5.3227 2.33462 
5.21888 5.20281 0.714531 
5.35411 5.15291 0.67728 
5.62058 5.58157 1.49062 
5.56505 5.42038 1.34773 
5.77645 5.36726 2.33574 
5.86827 5.31442 1.24412 
5.4718 5.37583 -0.019126 
5.47787 5.65252 1.20599 
5.40031 5.07666 0.866861 
5.06698 5.0471 0.910317 
5.272 5.68752 -0.037092 
5.90733 5.23408 1.63139 
5.7982 5.1477 1.11072 
5.40511 5.70325 1.30829 
5.30653 5.21743 0.770204 
5.48902 5.47718 0.952484 
5.83749 5.27013 2.60162 
5.62433 5.31797 2.4788 
5.12538 5.32999 2.51053 
5.06371 5.64849 1.24298 
5.01418 5.74561 1.32151 
5.28171 5.0321 1.21238 
5.42856 5.48195 -0.026686 
5.45185 5.5536 0.705929 
5.44782 5.27682 2.6863 
5.39762 5.01176 -0.029556 
5.30396 5.13342 0.780247 
5.63899 5.48301 1.50153 
5.21948 5.05117 0.352806 
5.91555 5.32107 2.5543 
5.78066 5.28507 2.60334 
5.38955 5.11264 2.64612 
5.31427 5.31895 2.64079 
5.82784 5.17084 1.43905 
5.16985 5.19759 0.776851 
5.01946 5.43719 0.057472 
5.23135 5.1215 1.01463 
5.82501 5.2836 1.3497 
5.36166 5.031 1.34458 
5.00044 5.69753 0.039568 
5.25596 5.33217 2.60385 
5.7907 5.13242 1.29319 
5.21542 5.02801 0.137906 
5.89178 5.42664 1.59733 
5.01709 5.72346 1.34436 
5.85257 5.11144 1.07381 
5.33804 5.32455 2.59341 
5.06856 5.04825 0.838853 
5.09274 5.32867 2.69002 
5.05951 5.0196 0.702158 
5.42598 5.61485 0.439012 
5.45876 5.47641 1.5226 
5.07513 5.5093 0.974848 
5.03482 5.33328 2.62107 
5.25084 5.04807 1.03867 
5.38988 5.1375 2.62883 
5.23713 5.33389 -0.027153 
5.5433 5.45459 0.853801 
5.89138 5.28307 2.40135 
5.01251 5.52804 0.628631 
5.29425 5.27955 2.41812 
5.31544 5.2714 2.64102 
5.02919 5.32731 2.60134 
5.0402 5.02762 0.833392 
5.19194 5.22192 0.773067 
5.52165 5.53812 1.25943 
5.07212 5.05085 0.457536 
5.21201 5.22121 0.781188 
5.70704 5.24232 0.418935 
5.90002 5.2828 2.43268 
5.76615 5.31907 2.60964 
5.66512 5.36808 0.548439 
5.0417 5.6244 0.852291 
5.18769 5.04248 -0.031537 
5.38564 5.32056 2.53016 
5.98518 5.23602 1.47282 
5.57706 5.28633 0.823271 
5.74549 5.32084 1.23644 
5.60231 5.38237 1.43266 
5.26272 5.33051 2.633 
5.27794 5.55571 1.55164 
5.78408 5.33361 2.34907 
5.14037 5.48723 1.14337 
5.00187 5.43053 0.856032 
5.14199 5.60186 1.35141 
5.43098 5.22741 -0.038428 
5.16915 5.05286 0.303199 
5.68261 5.2142 1.16766 
5.59367 5.32569 0.64531 
5.7255 5.29539 2.72031 
5.39883 5.27289 2.39125 
5.41203 5.50939 0.704439 
5.47574 5.12703 -0.020402 
5.23851 5.04083 0.2632 
5.2055 5.04635 0.594848 
5.26189 5.3227 2.52836 
5.06178 5.60573 0.463093 
5.28642 5.16371 0.69566 
5.87868 5.38293 1.36273 
5.16204 5.57668 0.699125 
5.44769 5.00501 0.752837 
5.11653 5.09695 0.794794 
5.09753 5.47003 1.07836 
5.08183 5.53874 0.844528 
5.14421 5.10463 -0.005669 
5.16204 5.57668 0.699125 
5.20552 5.01553 1.01267 
5.82312 5.22205 1.32527 
5.00014 5.47865 1.37772 
5.01901 5.32491 2.36295 
5.23754 5.32508 2.60902 
5.28466 5.32922 2.65283 
5.78936 5.31682 2.45844 
5.45109 5.32187 0.981633 
5.28858 5.21799 0.709782 
5.71976 5.1596 0.936869 
5.57104 5.29824 0.863886 
5.22948 5.46739 1.70849 
5.25557 5.14957 0.765885 
5.88488 5.31246 2.47957 
5.14199 5.60186 1.35141 
5.10377 5.60014 1.21799 
5.22198 5.14038 1.02278 
5.69223 5.20162 0.948438 
5.68261 5.2142 1.16766 
5.61593 5.56057 0.282018 
5.22154 5.15162 0.899518 
5.17715 5.5236 1.37385 
5.87528 5.3344 1.32005 
5.95992 5.01657 1.61668 
5.1734 5.04124 0.286232 
5.16391 5.62194 1.20723 
5.60372 5.61301 1.47935 
5.28771 5.1278 -0.038764 
5.62087 5.28399 2.34189 
5.35654 5.32606 2.57883 
5.51092 5.24893 -0.009772 
5.59618 5.25623 2.6499 
5.96861 5.33125 1.35929 
5.04761 5.62708 0.17603 
5.21247 5.3358 2.52201 
5.09583 5.10888 0.754634 
5.16658 5.17611 0.784189 
5.12321 5.58366 1.24084 
5.00057 5.72147 1.46152 
5.39223 5.54103 0.450711 
5.8698 5.08219 0.501826 
5.66471 5.14864 0.720584 
5.53623 5.57489 -0.042083 
5.17487 5.12656 0.67138 
5.19518 5.04767 0.260493 
5.04288 5.64981 0.162895 
5.35133 5.32158 2.52412 
5.32422 5.32401 2.49276 
5.01811 5.28607 -0.039487 
5.69546 5.14966 0.886449 
5.09642 5.22131 1.08974 
5.1612 5.09647 0.943134 
5.76439 5.31654 2.4731 
5.59282 5.25085 2.64618 
5.78298 5.28159 2.39112 
5.58265 5.26532 2.4278 
5.0364 5.57106 0.524682 
5.21318 5.3129 -0.027252 
5.57011 5.53155 0.500896 
5.04251 5.53981 0.332391 
5.57287 5.25433 0.956556 
5.43585 5.32089 2.40342 
5.14995 5.32974 2.60577 
5.40729 5.07965 0.741048 
5.29753 5.65428 1.39015 
5.07457 5.33033 2.36335 
5.57362 5.33211 2.64465 
5.57267 5.55906 1.44133 
5.86021 5.2734 2.59752 
5.06289 5.53056 0.167516 
5.27794 5.55571 1.55164 
5.21201 5.22121 0.781188 
5.22768 5.05389 1.27963 
5.2341 5.19695 0.685982 
5.07626 5.14907 -0.025853 
5.55214 5.61221 0.751161 
5.07457 5.33033 2.36335 
5.10073 5.32806 2.5997 
5.16668 5.28281 0.972495 
5.93647 5.02728 0.490975 
5.92863 5.40033 1.46804 
5.96781 5.26773 2.55141 
5.50091 5.56209 -0.04483 
5.88941 5.30994 2.42669 
5.97587 5.19654 1.47672 
5.014 5.67594 0.13498 
5.69537 5.19078 0.578257 
5.23347 5.00203 -0.023233 
5.65287 5.5541 1.55213 
5.41436 5.53433 0.789982 
5.28486 5.52084 -0.045035 
5.01827 5.472 0.543973 
5.64915 5.31718 2.47796 
5.74199 5.67549 -0.033864 
5.91115 5.30903 2.35651 
5.25689 5.65193 -0.042697 
5.21227 5.16502 0.960662 
5.2376 5.60478 0.212614 
5.90176 5.11854 0.498112 
5.24923 5.02282 1.41435 
5.21862 5.48132 1.18654 
5.20455 5.31206 2.66814 
5.05899 5.6208 0.554047 
5.61593 5.56057 0.282018 
5.78422 5.05536 1.11025 
5.91514 5.24144 2.56754 
5.36177 5.34249 -0.031334 
5.14907 5.03594 -0.022733 
5.56299 5.29136 1.10739 
5.34404 5.1786 0.740895 
5.84232 5.10012 1.19093 
5.02093 5.43241 1.29826 
5.2834 5.07598 0.994096 
5.04688 5.05323 0.919616 
5.27714 5.62388 1.43249 
5.95297 5.2776 2.48022 
5.02355 5.70408 1.12372 
5.42906 5.34736 1.0099 
5.44556 5.46391 1.06113 
5.45321 5.00728 0.693773 
5.57151 5.54276 1.43782 
5.81131 5.21035 1.25729 
5.06987 5.65828 1.18392 
5.02706 5.72142 -0.031073 
5.20409 5.1462 0.971943 
5.81916 5.30919 2.35367 
5.88114 5.27794 1.2923 
5.53168 5.63929 1.03362 
5.04481 5.57228 0.226736 
5.53259 5.67014 1.05034 
5.2344 5.15822 0.83586 
5.85197 5.11603 1.13692 
5.54531 5.16138 -0.000855001 
5.37466 5.14251 0.814978 
5.31819 5.3271 2.47801 
5.44238 5.50875 0.677287 
5.21215 5.47422 1.19555 
5.52712 5.48606 1.26492 
5.18924 5.00956 1.28265 
5.3162 5.15846 0.874168 
5.41948 5.04323 0.85587 
5.88528 5.12239 1.34448 
5.43111 5.58742 1.02799 
5.51142 5.55133 -0.041468 
5.01389 5.43856 0.290463 
5.77803 5.32473 2.57758 
5.31432 5.58903 -0.036412 
5.74199 5.67549 -0.033864 
5.42785 5.38103 -0.031412 
5.09568 5.29324 -0.035201 
5.89407 5.00485 0.521966 
5.91057 5.31604 2.6012 
5.89282 5.00144 1.67426 
5.9341 5.31855 2.52713 
5.21215 5.47422 1.19555 
5.21274 5.05404 1.02081 
5.19982 5.53422 -0.038315 
5.34161 5.09987 -0.029026 
5.69759 5.27716 2.36093 
5.80395 5.29198 2.32147 
5.21274 5.05404 1.02081 
5.08345 5.6088 0.115417 
5.02071 5.59967 0.491988 
5.02634 5.61905 0.748588 
5.44593 5.46744 1.62628 
5.19879 5.23357 0.747863 
5.78839 5.28655 2.41095 
5.99274 5.28205 2.60428 
5.73126 5.25716 0.343463 
5.66708 5.27282 2.36548 
5.45109 5.32187 0.981633 
5.1889 5.02704 0.582282 
5.26698 5.1466 0.890796 
5.47266 5.65952 1.17254 
5.48521 5.27143 2.46089 
5.05706 5.57757 0.503831 
5.84479 5.28996 1.22243 
5.81335 5.31847 2.4469 
5.62486 5.34947 0.671578 
5.15552 5.47507 1.24032 
5.63747 5.46352 0.284084 
5.22594 5.49086 1.69638 
5.78035 5.33209 1.5008 
5.08876 5.08165 0.557382 
5.05741 5.57515 0.598604 
5.24245 5.55361 0.450219 
5.98912 5.32098 2.59762 
5.16028 5.11823 -0.011433 
5.41622 5.55635 0.330727 
5.22816 5.00047 0.574447 
5.63899 5.48301 1.50153 
5.0383 5.44103 0.98018 
5.04531 5.53175 0.858486 
5.60837 5.27967 2.36175 
5.21106 5.18896 -0.018034 
5.77224 5.29045 2.32689 
5.22952 5.14727 0.940722 
5.24116 5.1492 0.894714 
5.01575 5.63216 0.860431 
5.16482 5.10697 0.623301 
5.75796 5.38917 1.57439 
5.20453 5.31746 2.40214 
5.50089 5.32791 2.52479 
5.04449 5.22066 1.22389 
5.98954 5.00074 0.968593 
5.49975 5.32329 2.45355 
5.40714 5.09584 2.58332 
5.54659 5.4129 0.883669 
5.04295 5.26508 -0.025852 
5.38673 5.50594 -0.032827 
5.25884 5.02989 0.282434 
5.22939 5.57233 0.313668 
5.46419 5.53659 0.711149 
5.72378 5.32117 2.6083 
5.35237 5.61073 -0.035506 
5.40374 5.52272 -0.035832 
5.24336 5.12582 1.08145 
5.03242 5.55192 0.967701 
5.12268 5.57376 0.779685 
5.88386 5.27863 2.64586 
5.38428 5.32947 2.64976 
5.20222 5.0779 0.936231 
5.31837 5.32226 2.40333 
5.45876 5.47641 1.5226 
5.44146 5.48175 1.74738 
