# .PCD v0.7 - Point Cloud Data file format
VERSION 0.7
FIELDS x y z
SIZE 4 4 4
TYPE F F F
COUNT 1 1 1
WIDTH 1593
HEIGHT 1
VIEWPOINT 0 0 0 1 0 0 0
POINTS 1593
DATA ascii
0.134546 2.5716 0.41858399
0.247431 2.5999999 0.60383999
0.17755599 2.8031299 0.146286
0.17755599 2.6449499 0.536762
0.17755599 2.60215 0.33841899
-0.51696301 2.3691599 0.76889902
0.134546 2.51403 0.63414901
-0.24067201 2.3703699 0.64109403
0.24432699 2.81464 0.74448699
-0.69985503 2.8356299 0.76889902
0.234148 2.50562 0.61699498
0.134546 2.7564099 0.089423001
-0.24067201 2.38642 0.61585099
0.17755599 2.6107199 0.30194601
0.134546 2.69805 0.208235
0.28431901 2.50562 0.49168599
0.134546 2.6259401 0.347157
0.134546 2.82301 0.25000799
0.159555 2.50562 0.67134202
-0.61807799 2.2637801 0.76889902
-0.64227599 2.36654 0.76889902
-0.37270701 2.23805 0.76889902
0.19868 2.78984 0.74448699
0.17755599 2.7699599 0.207268
-0.40968201 2.26478 0.76889902
0.134546 2.62376 0.56340802
0.17755599 2.8647799 0.080139697
0.23274 2.8505599 0.079623602
0.17755599 2.6839199 0.481152
0.134546 2.56299 0.393556
0.14862201 2.6386199 0.710926
0.15504301 2.5550699 0.653561
0.134546 2.6479101 0.44982299
0.17755599 2.63711 0.24289501
-0.24067201 2.64592 0.70986402
0.285602 2.5684299 0.64684898
0.17755599 2.7691 0.145988
-0.55814803 2.3452101 0.76889902
0.134546 2.66712 0.53879201
-0.48683399 2.3866401 0.76889902
0.134546 2.76103 0.21878099
0.18851399 2.50562 0.58542401
-0.24067201 2.4631 0.71924198
-0.485367 2.3594 0.35393599
-0.63762599 2.21857 0.76889902
0.134546 2.53473 0.457544
0.216437 2.7560799 0.079623602
0.223828 2.6698899 0.64684898
-0.63133597 2.15168 0.76889902
0.24819501 2.50562 0.74408299
0.134546 2.5387499 0.51673502
0.17755599 2.7242601 0.13871001
0.134546 2.6568201 0.38572401
0.16916101 2.5889101 0.74448699
-0.22459701 1.91522 0.59802997
0.26731899 2.6252401 0.60383999
-0.231576 2.3773 0.59802997
-0.24067201 1.87997 0.63559097
0.134546 2.7460799 0.22011501
0.17755599 2.5696499 0.53836501
0.28310001 2.50562 0.51487797
0.134546 2.52847 0.56850702
0.17755599 2.8552499 0.146476
0.144943 2.5550699 0.67444599
0.170991 2.5550699 0.71052003
-0.52162999 2.17309 0.76889902
0.19297799 2.6826601 0.74448699
0.134546 2.6367099 0.34132701
0.134546 2.6703601 0.174926
0.134546 2.8168099 0.052239399
0.23514199 2.5538299 0.64684898
-0.243828 2.3347001 0.76889902
0.13472401 2.50562 0.59618402
-0.419085 2.3717699 0.76889902
0.134546 2.65011 0.48478001
0.183365 2.7013199 0.73669398
0.28502801 2.5288999 0.710926
0.17755599 2.68608 0.394153
-0.47437999 2.3854101 0.76889902
0.234467 2.50562 0.54564703
0.134546 2.7888401 0.29963401
0.134546 2.8601601 0.31242099
-0.36489299 2.2244999 0.76889902
0.134546 2.63116 0.16420101
-0.52938801 2.13147 0.76889902
0.18447299 2.6914301 0.74448699
0.17755599 2.5416 0.55358702
0.134546 2.7263899 0.112133
0.134546 2.69309 0.20724601
0.257716 2.6340401 0.64684898
0.134546 2.7288101 0.234915
0.17755599 2.60499 0.47325
0.134546 2.6403301 0.30683899
-0.27670801 2.63832 0.76889902
0.134546 2.5378399 0.19386899
0.134546 2.6040101 0.44253999
0.14339 2.50562 0.72340298
-0.52381301 2.2362001 0.76889902
0.17755599 2.57427 0.470617
0.17755599 2.57212 0.196577
-0.310882 2.4913099 0.76889902
0.259433 2.7156601 0.74448699
-0.60868299 2.85307 0.76889902
-0.643323 2.1452799 0.76889902
-0.46345201 2.2262599 0.76889902
0.278927 2.52089 0.60383999
-0.27670801 2.63832 0.76889902
0.17755599 2.8645999 0.12650099
0.134546 2.6387999 0.493155
-0.305096 2.30123 0.76889902
0.26155499 2.50562 0.53786898
0.134546 2.6035199 0.238557
0.17755599 2.61536 0.198833
0.169801 2.50562 0.46786699
0.15812001 2.50562 0.440824
-0.21016499 1.8694299 0.63802499
-0.38795701 2.42959 0.76889902
0.134546 2.72631 0.40896401
0.17755599 2.76706 0.388235
0.182246 2.75159 0.079623602
0.17755599 2.8508999 0.23267099
-0.24067201 2.5566599 0.75443298
0.134546 2.80636 0.115658
-0.67957002 2.3590801 0.76889902
0.234568 2.6706901 0.60383999
0.134546 2.6357701 0.57966101
-0.24067201 2.6166899 0.69020498
0.134546 2.7564099 0.089423001
-0.19496 1.89458 0.59940201
0.17755599 2.7686 0.290977
-0.33691099 2.3398099 0.76889902
0.17755599 2.7528 0.31997901
0.134546 2.59744 0.28650701
0.23938499 2.8357799 0.079623602
0.22729699 2.5576301 0.60383999
-0.24067201 2.39307 0.72371
0.134546 2.6303401 0.20135599
0.182616 2.6855199 0.74448699
-0.285099 2.37941 0.76889902
0.145531 2.50562 0.50882399
0.151493 2.50562 0.17718799
0.192441 2.50562 0.52225101
0.134546 2.5058899 0.64101201
-0.41453701 2.2994499 0.76889902
-0.24067201 1.88495 0.645886
0.172451 2.6761899 0.74448699
0.17755599 2.63888 0.39040801
0.134546 2.86604 0.113414
0.17755599 2.83372 0.15206
0.262364 2.59938 0.64684898
0.17755599 2.8083799 0.101766
-0.385438 2.27279 0.76889902
-0.48204601 1.8828599 0.78110099
-0.64717102 2.0302 0.78110099
0.17755599 2.5808001 0.52580398
-0.53149599 2.8518801 0.76889902
0.262012 2.6754899 0.60383999
-0.66005498 2.0813501 0.76889902
-0.48864201 2.36357 0.35393599
0.17755599 2.6691799 0.487333
0.20025 2.7186 0.74448699
0.134546 2.54845 0.59904498
-0.64283198 2.40839 0.76889902
-0.67827898 2.79653 0.76889902
0.15305901 2.6993699 0.74448699
-0.30993599 2.3108201 0.76889902
-0.268693 2.38219 0.76889902
0.22637799 2.6189499 0.60383999
0.139469 2.5741501 0.710926
0.134546 2.86252 0.256933
0.134546 2.8356199 0.060036302
-0.51553798 2.1795299 0.76889902
0.240283 2.50562 0.51052499
0.241298 2.50562 0.50887901
0.21979401 2.82253 0.079623602
-0.60951197 2.28002 0.76889902
-0.612854 2.02865 0.78110099
-0.31855899 2.41078 0.76889902
-0.24067201 2.4166501 0.74597198
0.17755599 2.74984 0.41987601
0.17755599 2.83989 0.16436499
0.134546 2.6403301 0.30683899
0.17755599 2.60307 0.31098199
0.17755599 2.83745 0.29836199
-0.52824003 2.8436899 0.76889902
-0.556826 1.94361 0.78110099
-0.24067201 1.87174 0.60621798
0.181082 2.63394 0.74448699
-0.620767 2.2298601 0.76889902
-0.55071902 2.06739 0.778579
0.134546 2.80725 0.115355
-0.51180702 2.35695 0.35393599
0.17755599 2.5759399 0.372664
0.17755599 2.5408101 0.69701397
0.144877 2.50562 0.40389001
-0.24067201 2.65292 0.71240199
0.17755599 2.8303399 0.218555
-0.622159 1.9480799 0.78110099
0.17755599 2.6926799 0.43487599
0.134546 2.6788299 0.71416199
-0.297656 2.3173499 0.76889902
-0.24067201 2.32512 0.74142402
0.13992301 2.65747 0.74448699
0.183365 2.55845 0.73124099
-0.30848199 2.3376601 0.76889902
0.134546 2.74876 0.21069901
0.16486999 2.6468599 0.74448699
-0.43606499 2.3801401 0.76889902
0.21606 2.7546699 0.74448699
-0.24067201 2.3991399 0.64712697
-0.53638703 2.1412201 0.76889902
0.17755599 2.6845601 0.208864
0.17755599 2.8441501 0.13561
0.24822199 2.5256701 0.60383999
-0.203685 1.90356 0.61022502
0.17755599 2.59763 0.30404201
-0.204026 2.3345001 0.59802997
-0.302742 2.5605299 0.76889902
0.17755599 2.6959801 0.38401201
0.17755599 2.7332201 0.196482
0.134546 2.6703601 0.174926
0.183365 2.6017599 0.72345698
0.212229 2.5367999 0.74448699
-0.305096 2.30123 0.76889902
-0.49163699 2.2618999 0.76889902
0.21317001 2.5945001 0.74448699
0.183365 2.6005199 0.73826802
0.17755599 2.74014 0.277053
0.17755599 2.6329401 0.29081199
0.149655 2.5590401 0.64684898
0.134546 2.7564099 0.089423001
-0.292436 2.5834 0.76889902
0.17755599 2.6504099 0.206976
0.17755599 2.6986799 0.41888601
0.17147399 2.6565599 0.710926
0.236526 2.8102 0.079623602
-0.372385 2.3524899 0.76889902
0.27075899 2.5458 0.64684898
0.17755599 2.6158299 0.46833
-0.52137601 2.8593099 0.76889902
0.28518 2.5550699 0.728926
-0.24067201 2.64045 0.72691
0.134546 2.8474801 0.073750198
0.19150101 2.6056399 0.60383999
0.202658 2.5255899 0.60383999
-0.50755799 2.8505099 0.76889902
0.17755599 2.6982801 0.45809501
0.134546 2.68309 0.25442001
-0.21344601 1.87227 0.59802997
0.264265 2.50562 0.59382802
0.17755599 2.7920699 0.080568202
-0.24067201 2.59339 0.73752803
-0.24067201 2.4985199 0.75688303
0.242422 2.85551 0.079623602
-0.66005498 2.0813501 0.76889902
0.284724 2.81125 0.079623602
0.134546 2.5919199 0.55987501
0.231865 2.6549101 0.60383999
0.134546 2.8045499 0.078457199
0.134546 2.55931 0.47740799
0.134546 2.7300999 0.338985
-0.48899499 2.3187399 0.35393599
0.24827 2.8139601 0.079623602
0.17755599 2.556 0.549384
0.134546 2.5495999 0.62848997
0.134546 2.6357701 0.57966101
0.17755599 2.5852399 0.47650701
-0.413257 2.3576601 0.76889902
0.229654 2.50562 0.55539
-0.66177201 2.21064 0.76889902
0.134546 2.67518 0.152289
0.17755599 2.7522299 0.29872999
0.228127 2.50562 0.442902
0.134546 2.55918 0.38595501
-0.614811 1.94011 0.78110099
0.19064 2.5269599 0.74448699
0.200434 2.78146 0.079623602
-0.39135399 2.3032 0.76889902
0.17755599 2.8362999 0.22384401
-0.65918601 2.0067101 0.78110099
0.17755599 2.5775299 0.56444103
0.159476 2.56411 0.64684898
-0.308956 2.45187 0.76889902
-0.24067201 2.4398999 0.696872
0.17755599 2.60499 0.47325
0.27880499 2.6600699 0.74448699
0.134546 2.8113 0.16247299
-0.276043 2.6180899 0.76889902
0.134546 2.74038 0.160933
-0.285099 2.37941 0.76889902
-0.28873199 2.5525501 0.76889902
0.17755599 2.79684 0.214607
0.134546 2.7748499 0.132871
0.17755599 2.7630401 0.153364
0.17755599 2.8115301 0.124078
0.17755599 2.6959801 0.38401201
0.134546 2.69117 0.257871
0.25598899 2.5550699 0.737885
-0.52876902 1.9295 0.78110099
0.259433 2.7156601 0.74448699
0.17755599 2.6940899 0.44955999
0.183365 2.59267 0.72246498
0.134546 2.5366399 0.59736598
0.209306 2.50562 0.59174901
-0.68587899 2.8112199 0.76889902
0.134546 2.6256499 0.29437801
0.24315199 2.6393199 0.60383999
0.134546 2.54456 0.27821401
0.134546 2.85039 0.259289
-0.69059902 2.0341001 0.78110099
0.134546 2.82301 0.25000799
-0.624255 1.99604 0.78110099
0.134546 2.8450201 0.257312
0.28518 2.5550699 0.728926
0.17755599 2.7234199 0.129875
-0.488828 2.34182 0.76889902
0.134546 2.75299 0.268085
0.20035499 2.50562 0.42127699
-0.31855899 2.41078 0.76889902
0.134546 2.75295 0.337798
0.199136 2.53353 0.74448699
0.134546 2.6296 0.55221498
-0.58973402 2.1140201 0.76889902
0.134546 2.8480101 0.186791
0.28500399 2.50562 0.43055299
0.17755599 2.73018 0.34048399
0.134546 2.77967 0.287889
0.27765 2.50562 0.44950801
-0.70560801 2.79965 0.76889902
-0.53107202 2.2722001 0.76889902
0.21523 2.6259999 0.74448699
0.20370799 2.50562 0.71971202
-0.65968198 2.1366899 0.76889902
-0.51745498 2.2899201 0.76889902
0.17755599 2.5943301 0.343169
0.134546 2.8262999 0.352173
-0.42530501 2.32745 0.76889902
0.17451701 2.50562 0.47971401
0.17755599 2.84391 0.33777601
0.194837 2.5540299 0.64684898
0.17755599 2.8303399 0.218555
0.17755599 2.54299 0.56732303
0.284233 2.6120601 0.64684898
0.17755599 2.84426 0.339479
-0.24067201 2.65728 0.682886
0.25523499 2.50562 0.62782001
-0.19305199 1.88401 0.61836898
-0.24067201 2.4632699 0.72174001
0.220311 2.50699 0.60383999
0.134546 2.6687801 0.52999997
0.25523499 2.50562 0.62782001
-0.41902801 2.38568 0.76889902
-0.60710597 2.12591 0.76889902
-0.24067201 2.3805799 0.63582999
0.183116 2.50562 0.47120601
0.184609 2.5550699 0.73269999
0.134546 2.67152 0.52347499
-0.24067201 2.34325 0.720074
-0.64745998 2.82131 0.76889902
0.17073999 2.66169 0.64684898
-0.24067201 2.3361101 0.643296
0.17755599 2.7985699 0.17716999
-0.30274099 2.34093 0.76889902
0.16621 2.6535599 0.74448699
-0.65048301 2.0056901 0.78110099
-0.40003601 2.30316 0.76889902
-0.188638 1.90711 0.59548801
0.17755599 2.84654 0.222057
-0.51651698 2.18081 0.76889902
0.134546 2.8474801 0.073750198
0.17755599 2.75758 0.29047799
-0.59390599 2.1535599 0.76889902
0.17755599 2.5636699 0.46890801
0.17755599 2.79863 0.349489
0.134546 2.72335 0.23428001
0.183365 2.55809 0.73880798
-0.59390599 2.1535599 0.76889902
-0.61119503 1.99631 0.78110099
0.17755599 2.6182001 0.35155201
-0.56869501 2.04914 0.78110099
-0.52147698 2.1976099 0.76889902
-0.51180702 2.35695 0.35393599
-0.64227599 2.36654 0.76889902
-0.57148498 2.01419 0.78110099
0.19176 2.50562 0.618002
0.134546 2.8513501 0.093280502
-0.24067201 2.4027901 0.707075
-0.237165 2.3397999 0.59802997
0.183365 2.56985 0.72987998
-0.24067201 2.3719001 0.673132
-0.57662499 2.8373599 0.76889902
0.18888 2.50562 0.72701699
0.148506 2.50562 0.503811
-0.397351 2.3895299 0.76889902
-0.50722402 1.89498 0.78110099
0.17755599 2.6742699 0.152779
0.134546 2.7710299 0.058329899
0.16813099 2.50562 0.46013299
0.178377 2.65271 0.64684898
0.17755599 2.69718 0.43694001
0.17755599 2.7485299 0.15843
-0.433548 2.33359 0.76889902
-0.65399098 2.05879 0.78110099
0.17755599 2.59144 0.44705001
-0.24067201 2.3383 0.60051799
-0.61808598 2.85043 0.76889902
-0.56547099 1.9963599 0.78110099
0.134546 2.53478 0.457396
0.17755599 2.60216 0.33513901
0.134546 2.7116201 0.42432401
0.134546 2.7969699 0.28196099
-0.69105798 2.4189401 0.76889902
0.17755599 2.83745 0.29836199
0.134546 2.7588999 0.18258899
-0.64405602 1.96696 0.78110099
-0.24067201 2.6335199 0.74739802
-0.63837999 2.33375 0.76889902
0.134546 2.5214 0.18790101
0.19591901 2.7272999 0.74448699
0.17755599 2.5904801 0.19374
0.134546 2.7139299 0.35914999
0.219806 2.5955601 0.60383999
-0.41008201 2.2061501 0.76889902
0.134546 2.5397601 0.35693401
0.134546 2.6705401 0.51012999
0.17755599 2.6175699 0.53025901
0.134546 2.84161 0.181944
-0.650639 2.33583 0.76889902
0.25872001 2.7848201 0.079623602
0.17755599 2.63167 0.28721499
-0.41291901 2.24158 0.76889902
0.14905401 2.50562 0.561055
0.28045899 2.50562 0.53460902
-0.57688397 2.3513999 0.76889902
0.17755599 2.6022601 0.22476099
0.197882 2.8003399 0.079623602
0.134546 2.6907699 0.37818399
0.16621 2.6535599 0.74448699
0.28038299 2.7666399 0.74448699
0.209851 2.8013699 0.079623602
-0.64405602 1.96696 0.78110099
-0.591892 1.9673899 0.78110099
-0.694745 2.4475601 0.76889902
-0.24067201 2.3734701 0.62598699
0.134546 2.65079 0.52139503
0.200442 2.50562 0.61757803
-0.65968198 2.1366899 0.76889902
-0.58288699 2.34378 0.35393599
0.150362 2.55143 0.74448699
0.134546 2.6119201 0.53155202
-0.617163 2.22996 0.76889902
0.141295 2.5550699 0.64787602
-0.378528 2.35116 0.76889902
-0.18980099 1.89272 0.60442197
0.134546 2.69784 0.308193
0.17755599 2.51632 0.43880001
-0.481987 2.3415401 0.35393599
0.15309501 2.6735699 0.64684898
0.238929 2.5318501 0.74448699
0.134546 2.5919399 0.17239299
-0.71324003 2.79388 0.76889902
0.17755599 2.76684 0.166302
0.267304 2.50562 0.44848901
0.134546 2.8045499 0.078457199
-0.54564899 2.22471 0.76889902
0.17755599 2.59655 0.20643
0.17755599 2.78248 0.063687101
-0.43806899 2.19028 0.76889902
0.138154 2.6285901 0.74448699
0.183633 2.8651099 0.079623602
0.28243601 2.5777199 0.64684898
-0.24067201 2.3680999 0.65718198
0.134546 2.61991 0.457726
-0.33477199 2.4743299 0.76889902
-0.24067201 2.5062799 0.76224202
0.208644 2.50562 0.560624
0.23663799 2.6635399 0.74448699
-0.53132302 2.3633299 0.76889902
0.19786701 2.52209 0.60383999
0.27660701 2.65626 0.64684898
0.246112 2.5578201 0.74448699
-0.45396501 2.33272 0.76889902
-0.55280602 2.0687201 0.76889902
0.134546 2.7462599 0.364216
0.134546 2.6270199 0.56339902
0.17755599 2.51948 0.50182199
0.23691 2.50562 0.47738701
0.134546 2.56639 0.56722701
-0.19496 1.89458 0.59940201
0.134546 2.7096601 0.287101
0.17755599 2.8166299 0.31319299
0.134546 2.6751699 0.38504899
-0.24067201 2.5082099 0.71117401
0.17755599 2.59747 0.38384801
0.134546 2.60181 0.38544101
-0.57846302 2.85075 0.76889902
0.17755599 2.83989 0.16436499
0.160032 2.5550699 0.69518399
0.134546 2.69784 0.308193
0.134546 2.5369201 0.72943199
0.134546 2.8243201 0.148794
0.23593201 2.50562 0.71838301
0.17755599 2.6136401 0.22544201
0.17755599 2.7686 0.290977
0.17755599 2.61536 0.198833
0.234148 2.50562 0.61699498
0.164583 2.50562 0.67003602
0.244333 2.50562 0.55489302
0.134546 2.7098801 0.257415
0.134546 2.65751 0.15749501
0.134546 2.84671 0.377565
0.17755599 2.8011899 0.063749298
-0.286017 2.46246 0.76889902
0.182616 2.6855199 0.74448699
0.134546 2.6303401 0.20135599
0.17755599 2.65413 0.58381301
0.19715901 2.7904899 0.079623602
-0.66605097 2.26987 0.76889902
-0.51265001 2.3522501 0.76889902
0.134546 2.7343199 0.095404699
0.134546 2.5541201 0.71997303
-0.24154399 2.36183 0.76889902
0.24601901 2.5272701 0.74448699
-0.41902801 2.38568 0.76889902
-0.21201099 1.8844399 0.64594299
-0.26311201 2.38815 0.76889902
-0.68826598 2.02332 0.78110099
0.134546 2.7490799 0.0845806
-0.42512199 2.38555 0.76889902
0.16916101 2.5889101 0.74448699
0.249725 2.50562 0.42753601
0.23234101 2.6391001 0.74448699
-0.55242097 2.2457099 0.76889902
0.284724 2.81125 0.079623602
0.15719201 2.50562 0.540883
-0.498456 2.2683201 0.76889902
0.134546 2.8356199 0.060036302
-0.70102 2.06774 0.76889902
0.134546 2.5946801 0.35496899
0.21454699 2.62959 0.74448699
0.22595 2.7853899 0.079623602
0.134546 2.66397 0.37042299
0.17755599 2.8548801 0.26773199
0.25381699 2.71069 0.74448699
-0.263495 2.37111 0.76889902
0.134546 2.5966001 0.53667098
0.145594 2.50562 0.67446399
0.17755599 2.6296799 0.49046999
0.134546 2.75034 0.73856199
-0.24067201 2.6731501 0.67229098
0.134546 2.60201 0.64360499
0.134546 2.59442 0.737149
-0.52381301 2.2362001 0.76889902
0.186882 2.5058701 0.64684898
0.134546 2.5775101 0.50718701
0.25072601 2.50562 0.62221599
-0.48084599 2.15834 0.76889902
-0.48771799 2.16486 0.76889902
0.178931 2.61639 0.710926
-0.199589 1.8709 0.64641601
0.17755599 2.5850301 0.591847
0.134546 2.5927 0.712569
0.134546 2.5960701 0.49211401
0.17755599 2.7997501 0.11208
0.26681399 2.77877 0.74448699
-0.53766602 1.95013 0.78110099
0.17755599 2.73066 0.37571099
0.204281 2.73279 0.74448699
0.144529 2.6133699 0.64684898
-0.29028901 2.3132401 0.76889902
0.17755599 2.74491 0.40568399
0.17755599 2.8487899 0.093889304
0.17755599 2.7780099 0.40479001
-0.562567 2.3662601 0.35393599
0.21389601 2.54334 0.60383999
-0.24067201 2.64592 0.70986402
0.26665199 2.6068799 0.74448699
0.183365 2.6017599 0.72345698
0.183365 2.59267 0.72246498
0.134546 2.7539699 0.175192
0.263138 2.6537499 0.64684898
0.19064 2.5269599 0.74448699
0.201097 2.6232901 0.60383999
0.174234 2.60636 0.64684898
-0.501665 2.1612 0.76889902
0.17755599 2.6419401 0.38551
-0.624533 2.8504 0.76889902
0.134546 2.86412 0.252134
0.1707 2.50562 0.40885001
0.134546 2.63695 0.713341
-0.243662 2.5105801 0.76889902
0.134546 2.5343399 0.515405
0.17755599 2.6479599 0.52254099
0.171692 2.5991399 0.64684898
0.219383 2.6071801 0.64684898
0.134546 2.5358 0.70335102
-0.377563 2.3696499 0.76889902
-0.67177302 2.42961 0.76889902
0.134546 2.5486701 0.48141199
-0.696136 1.97278 0.78110099
0.17755599 2.54443 0.172482
0.17755599 2.5888901 0.180832
-0.601004 2.19524 0.76889902
0.17755599 2.7920699 0.080568202
0.247431 2.5999999 0.60383999
-0.519934 2.3101101 0.76889902
0.200187 2.50562 0.72984099
0.134546 2.6271501 0.269995
-0.62976402 2.1330299 0.76889902
0.19010299 2.58952 0.74448699
0.254444 2.5274701 0.710926
-0.65295899 2.2842801 0.76889902
0.17755599 2.5670099 0.53693098
0.134546 2.61991 0.457726
0.256832 2.72609 0.079623602
0.17755599 2.58354 0.41744599
0.134546 2.84026 0.115901
0.134546 2.58986 0.27831301
0.134546 2.5188401 0.71353602
0.17755599 2.6136401 0.22544201
-0.37418601 2.31566 0.76889902
0.206967 2.5483 0.60383999
0.1707 2.50562 0.40885001
0.17755599 2.83989 0.16436499
0.15276299 2.50562 0.66040802
-0.24067201 2.41171 0.67483902
-0.33699101 2.3478301 0.76889902
-0.52824003 2.8436899 0.76889902
0.134546 2.56161 0.39124799
-0.64903301 2.4161899 0.76889902
0.160559 2.50562 0.702941
0.17755599 2.7037599 0.203373
0.134546 2.7564099 0.089423001
0.17755599 2.7671599 0.110258
0.17755599 2.5754399 0.577932
0.254949 2.85568 0.079623602
0.134546 2.6305301 0.367645
-0.292436 2.5834 0.76889902
0.134546 2.75526 0.274941
-0.24067201 2.47089 0.76686198
0.134546 2.53212 0.70729899
-0.65600502 2.3206201 0.76889902
-0.53184402 2.3619101 0.35393599
0.134546 2.5313301 0.52197301
-0.56245703 2.8571301 0.76889902
0.246482 2.5087399 0.74448699
-0.407121 2.3813801 0.76889902
0.19495501 2.5323801 0.710926
0.196573 2.5529201 0.64684898
0.15019201 2.6452401 0.74448699
0.21381401 2.50562 0.588772
0.206191 2.5485599 0.710926
0.28310001 2.50562 0.51487797
0.17889901 2.50562 0.550556
0.240925 2.6517501 0.60383999
-0.51477802 2.3314199 0.76889902
0.134546 2.5285499 0.69647402
-0.24067201 2.5163701 0.722938
-0.53661197 2.1235399 0.76889902
-0.625525 2.33797 0.35393599
-0.24067201 2.32512 0.74142402
-0.30848199 2.3376601 0.76889902
0.144943 2.5550699 0.67444599
-0.24067201 2.49244 0.70011801
0.17755599 2.7300799 0.25295401
0.28315899 2.5362101 0.64684898
0.19010299 2.58952 0.74448699
-0.19305199 1.88401 0.61836898
0.151493 2.50562 0.17718799
0.17755599 2.5983801 0.35682401
0.134546 2.6238201 0.19044299
-0.24067201 2.5092001 0.733078
0.134546 2.60009 0.235724
-0.56245703 2.8571301 0.76889902
0.134546 2.56161 0.39124799
0.17755599 2.68293 0.42628399
-0.61860299 2.1866701 0.76889902
-0.64473897 2.02915 0.78110099
-0.32719201 2.3072701 0.76889902
-0.24067201 2.3452201 0.66710001
0.268675 2.70295 0.64684898
-0.24067201 1.88495 0.645886
-0.67957002 2.3590801 0.76889902
0.134546 2.8159299 0.190433
0.17755599 2.58846 0.306122
0.147737 2.64834 0.64684898
0.17755599 2.6558001 0.507011
-0.35070699 2.3318601 0.76889902
0.134546 2.62953 0.380191
-0.24067201 2.6494999 0.71426803
0.22831801 2.50562 0.46957299
0.23259 2.76987 0.079623602
-0.61773002 2.3420401 0.76889902
-0.24067201 2.32512 0.74142402
0.134546 2.60181 0.38544101
0.134546 2.5966001 0.53667098
-0.64921701 2.2867601 0.76889902
0.233693 2.5230601 0.64684898
0.17147399 2.6565599 0.710926
0.17755599 2.8158901 0.2271
-0.66513598 1.99044 0.78110099
0.24325299 2.57657 0.60383999
0.134546 2.5921299 0.25434101
0.206967 2.5483 0.60383999
-0.53680497 2.37569 0.76889902
0.22433899 2.71878 0.74448699
0.17755599 2.6986799 0.41888601
0.17755599 2.8031099 0.39487001
-0.55182397 1.98427 0.78110099
0.17755599 2.80758 0.117214
-0.57859701 2.12392 0.76889902
0.16486999 2.6468599 0.74448699
0.134546 2.6568201 0.38572401
0.160559 2.50562 0.702941
0.134546 2.84268 0.114979
0.278236 2.50562 0.73381603
-0.71160197 2.32177 0.35393599
0.25431901 2.62044 0.60383999
0.259433 2.7156601 0.74448699
0.17755599 2.6014099 0.57586002
0.134546 2.6578701 0.46005601
0.274598 2.77016 0.079623602
0.210114 2.5604401 0.74448699
-0.37880701 2.27268 0.76889902
-0.50882798 2.8562601 0.76889902
-0.419608 2.40927 0.76889902
0.15624399 2.66308 0.74448699
0.17755599 2.70298 0.307978
-0.24067201 2.3322101 0.74861699
0.14905401 2.50562 0.561055
0.134546 2.7516601 0.31663799
0.23337901 2.6599801 0.64684898
0.17755599 2.70683 0.169071
0.134546 2.7314601 0.26274201
0.25072601 2.50562 0.62221599
0.17755599 2.60307 0.31098199
0.134546 2.65903 0.58677602
-0.534711 2.06739 0.780819
-0.65262401 2.00018 0.78110099
-0.58740097 2.2697501 0.76889902
0.134546 2.61235 0.45315999
0.25072601 2.50562 0.62221599
-0.24067201 2.3383 0.60051799
0.209958 2.50562 0.43083999
-0.65019798 2.1456699 0.76889902
-0.24067201 2.5566599 0.75443298
-0.56373101 2.2995999 0.76889902
0.23274 2.8505599 0.079623602
-0.52381301 2.2362001 0.76889902
-0.40171701 2.3914199 0.76889902
-0.29569 2.2874899 0.76889902
-0.48683399 2.3866401 0.76889902
-0.61571902 2.3564501 0.76889902
-0.60721803 2.18455 0.76889902
-0.680852 2.35116 0.76889902
0.19242001 2.6517999 0.60383999
0.17755599 2.6062 0.38499799
0.134546 2.6633799 0.51244599
0.134546 2.5486701 0.48141199
0.134546 2.65537 0.28500301
0.134546 2.7021999 0.324981
-0.68268299 2.0439301 0.78110099
-0.24067201 2.5092001 0.733078
0.183365 2.65451 0.73897499
0.17755599 2.6774001 0.41072899
0.219596 2.5473101 0.710926
0.26019299 2.51475 0.64684898
-0.24067201 2.4816401 0.709144
-0.67387301 2.3963399 0.76889902
-0.24067201 1.88782 0.61966598
0.134546 2.69081 0.35049501
0.17755599 2.6845601 0.208864
0.17755599 2.5307701 0.47021401
0.17755599 2.55266 0.536861
0.134546 2.6361401 0.57548201
-0.19509301 1.90008 0.62712502
0.17755599 2.6558001 0.507011
-0.28533101 2.48281 0.76889902
-0.344311 2.3085899 0.76889902
0.134546 2.56271 0.443308
0.160236 2.74948 0.74448699
0.2051 2.79599 0.74448699
0.134546 2.54688 0.19607399
0.191166 2.8319099 0.079623602
0.134546 2.5652399 0.47580501
0.192725 2.59726 0.60383999
0.134546 2.75175 0.103293
-0.52381301 2.2362001 0.76889902
-0.696136 1.97278 0.78110099
0.134546 2.63236 0.30700901
-0.70885998 2.41152 0.76889902
0.17755599 2.6180401 0.187122
-0.49259001 2.1782899 0.76889902
0.201326 2.76878 0.079623602
0.134546 2.53548 0.215748
0.134546 2.86028 0.087779202
-0.205861 2.3548999 0.59802997
0.221726 2.50562 0.63353199
0.134546 2.5433199 0.40201601
0.152696 2.76526 0.74448699
-0.24067201 2.4563999 0.74610502
-0.60204101 1.92681 0.78110099
-0.51905602 2.30265 0.76889902
-0.188638 1.87491 0.59059697
0.17755599 2.61642 0.460563
0.134546 2.5358 0.70335102
0.134546 2.6085401 0.47968
0.149022 2.5594101 0.64684898
-0.24067201 2.3612001 0.706613
0.17755599 2.6338799 0.43000001
0.17755599 2.8508601 0.131418
0.134546 2.7212701 0.29377601
-0.34544 2.3143699 0.76889902
-0.39236701 2.2778001 0.76889902
0.134546 2.83408 0.182741
0.17755599 2.5226901 0.70123702
-0.48925501 2.3442299 0.76889902
0.134546 2.72335 0.23428001
0.17755599 2.5852399 0.47650701
-0.31140199 2.3901999 0.76889902
-0.52249402 1.8875999 0.78110099
0.134546 2.7392399 0.14796001
0.21389601 2.54334 0.60383999
-0.57416803 2.06739 0.78083402
-0.30853501 2.5445099 0.76889902
-0.49399599 2.3961699 0.35393599
-0.66177201 2.21064 0.76889902
-0.24067201 2.5253201 0.76171899
0.17755599 2.8238699 0.055367298
-0.650639 2.33583 0.76889902
0.232124 2.70755 0.74448699
0.198304 2.50562 0.57164502
0.253014 2.50562 0.723979
0.232004 2.6686101 0.60383999
-0.51868802 2.16116 0.76889902
-0.60741901 2.0420101 0.78110099
-0.24067201 2.3889799 0.74071097
-0.54552197 2.31338 0.76889902
0.13992301 2.65747 0.74448699
0.16125201 2.6450601 0.710926
-0.64479798 2.0555699 0.78110099
0.134546 2.75086 0.321199
0.267304 2.50562 0.44848901
-0.24067201 2.3322101 0.74861699
0.234777 2.50562 0.473701
-0.65590698 2.30755 0.76889902
0.134546 2.86725 0.40716901
0.134546 2.78738 0.18018501
0.188757 2.5060301 0.64684898
0.134546 2.6640401 0.417557
-0.24732099 2.61409 0.76889902
0.134546 2.66874 0.352694
0.134546 2.54845 0.59904498
-0.244812 2.57513 0.76889902
0.134546 2.6454799 0.54960197
0.179185 2.50562 0.45763999
0.134546 2.51191 0.18941399
0.186342 2.6774001 0.74448699
0.232004 2.6686101 0.60383999
0.183365 2.57727 0.72503102
0.239923 2.50562 0.53080398
0.134546 2.6166401 0.199861
0.134546 2.60181 0.38544101
0.201097 2.6232901 0.60383999
0.17755599 2.7532101 0.30637199
-0.33579201 2.4006801 0.76889902
-0.24067201 2.4139099 0.76368397
0.19359501 2.77086 0.74448699
0.17755599 2.6368599 0.43094501
-0.24067201 2.59339 0.73752803
0.17755599 2.59763 0.30404201
0.21894801 2.8657701 0.079623602
-0.69407099 2.0264599 0.78110099
-0.24067201 2.3387001 0.65515298
0.134546 2.86271 0.40053099
0.134546 2.6617401 0.21101201
-0.52349102 1.88095 0.78110099
0.17755599 2.59214 0.193435
-0.52774501 1.95069 0.78110099
0.26487699 2.50562 0.58385402
0.14862201 2.6386199 0.710926
-0.48903599 2.3067601 0.76889902
-0.553487 2.29143 0.76889902
-0.263495 2.37111 0.76889902
-0.24067201 2.5435801 0.67895103
0.236366 2.7630999 0.079623602
-0.28684199 2.5992701 0.76889902
-0.48718601 2.3878801 0.35393599
-0.200964 1.91152 0.59855199
0.14759099 2.77091 0.74448699
0.25988001 2.50562 0.497816
0.17755599 2.59655 0.20643
0.134546 2.5152099 0.60797399
0.230215 2.75456 0.74448699
0.17755599 2.8159299 0.24515
-0.24067201 2.3889799 0.74071097
0.18505301 2.6019299 0.74448699
0.134546 2.7132399 0.36684299
0.134546 2.80725 0.115355
0.27576801 2.50669 0.60383999
0.27326 2.69982 0.74448699
0.26919401 2.83059 0.74448699
0.134546 2.8663299 0.221453
-0.69360602 2.8168399 0.76889902
0.25737101 2.50562 0.57383698
-0.61773002 2.3420401 0.76889902
0.134546 2.75881 0.356691
-0.33656701 2.3307199 0.76889902
-0.30274099 2.34093 0.76889902
0.17755599 2.64428 0.164248
0.134546 2.6296599 0.37059999
0.192954 2.5387399 0.60383999
-0.24067201 1.9119999 0.60846901
-0.593301 2.2096701 0.76889902
0.134546 2.5348001 0.58740199
0.17755599 2.73137 0.429728
-0.652749 2.8343799 0.76889902
-0.48104799 2.3350899 0.35393599
0.17755599 2.54825 0.683873
0.27265999 2.5825701 0.64684898
0.27357799 2.7552099 0.74448699
-0.557284 2.2932401 0.76889902
0.134546 2.7460799 0.22011501
0.17755599 2.60461 0.54708803
0.17755599 2.6100299 0.34648699
0.199422 2.50562 0.59785199
0.15621801 2.5272501 0.710926
0.17755599 2.52597 0.48678699
0.15276299 2.50562 0.66040802
-0.24067201 2.6166899 0.69020498
0.19359501 2.77086 0.74448699
0.134546 2.53708 0.39576301
0.134546 2.86658 0.405516
-0.33526799 2.25722 0.76889902
0.285806 2.51143 0.64684898
-0.24067201 2.46718 0.712282
0.26731899 2.6252401 0.60383999
0.17755599 2.55533 0.58687103
-0.69105798 2.4189401 0.76889902
0.17755599 2.8659501 0.187105
0.170109 2.62216 0.74448699
0.17755599 2.57657 0.56434
-0.24067201 2.5825601 0.73424798
0.17755599 2.62184 0.34055099
0.223327 2.7107501 0.74448699
0.17755599 2.84426 0.339479
-0.24067201 2.5092001 0.733078
-0.61364698 2.3357 0.76889902
0.17755599 2.6494901 0.18148699
0.134546 2.6621599 0.54319602
-0.355266 2.26229 0.76889902
0.17755599 2.78301 0.13298
0.17755599 2.5940001 0.56975901
0.134546 2.7114799 0.23709901
0.17755599 2.5984499 0.49963501
0.17755599 2.7671599 0.110258
0.134546 2.80481 0.25950101
0.134546 2.6477599 0.31202999
0.192954 2.5387399 0.60383999
0.147737 2.64834 0.64684898
0.134546 2.65011 0.48478001
0.17755599 2.8011899 0.063749298
-0.51696301 2.3691599 0.76889902
0.176047 2.50562 0.73237503
0.21140601 2.5243299 0.74448699
0.17755599 2.6180401 0.187122
0.18505301 2.6019299 0.74448699
0.134546 2.8434899 0.21745899
0.26487699 2.50562 0.58385402
-0.50649601 2.3182199 0.76889902
0.134546 2.7804699 0.27473101
0.134546 2.7943201 0.388062
0.134546 2.5190301 0.36497599
0.134546 2.5232899 0.610695
0.17755599 2.7451 0.21136101
-0.65221602 2.0225101 0.78110099
0.134546 2.8113201 0.39684001
0.17755599 2.8194201 0.25225401
-0.60062099 2.35444 0.76889902
-0.53766602 1.95013 0.78110099
-0.485367 2.3594 0.35393599
0.134546 2.6059799 0.25770801
0.201003 2.7722299 0.079623602
0.17755599 2.6496999 0.50736898
-0.30274099 2.34093 0.76889902
-0.54344898 2.0820799 0.76889902
0.238325 2.6554401 0.64684898
0.199136 2.53353 0.74448699
0.17755599 2.5362201 0.402771
0.17755599 2.77895 0.266067
0.28502801 2.5288999 0.710926
0.17755599 2.5155599 0.565561
0.17755599 2.6100299 0.34648699
-0.69042403 2.08459 0.76889902
0.169746 2.50562 0.55620003
0.138065 2.5253601 0.710926
-0.59386599 1.97914 0.78110099
0.14759099 2.77091 0.74448699
-0.380411 2.4140799 0.76889902
-0.54535103 1.9675601 0.78110099
0.230215 2.75456 0.74448699
0.228119 2.50562 0.50029898
-0.52809501 2.35429 0.76889902
0.134546 2.64412 0.32127801
-0.36489299 2.2244999 0.76889902
0.134546 2.5438001 0.58269203
0.21606 2.7546699 0.74448699
0.134546 2.78934 0.203568
0.17755599 2.61443 0.40581
0.17755599 2.8303399 0.218555
0.187646 2.50562 0.599114
-0.59443301 2.34111 0.35393599
-0.680852 2.35116 0.76889902
0.17755599 2.8441501 0.13561
-0.188638 1.87148 0.54527402
0.139469 2.5741501 0.710926
0.17755599 2.7420199 0.30232301
0.17755599 2.5775299 0.56444103
0.17755599 2.5390799 0.430843
0.134546 2.7098401 0.313324
-0.33699101 2.3478301 0.76889902
0.17755599 2.8503499 0.215223
0.134546 2.51652 0.474439
-0.29333499 2.3435299 0.76889902
-0.46463799 2.33811 0.35393599
-0.24067201 2.3322101 0.74861699
0.134546 2.5433099 0.56547701
0.22729699 2.5576301 0.60383999
0.17755599 2.54299 0.56732303
-0.65262401 2.00018 0.78110099
0.134546 2.6573 0.200764
-0.19875599 1.88271 0.64284003
-0.69731802 2.3171101 0.35393599
-0.34502101 2.3270299 0.76889902
0.134546 2.6296599 0.37059999
-0.22459701 1.91522 0.59802997
-0.55280602 2.0687201 0.76889902
0.134546 2.6573 0.200764
-0.53285497 2.11678 0.76889902
0.17755599 2.6303999 0.424142
-0.55673802 1.99725 0.78110099
0.17755599 2.78929 0.111914
-0.493054 2.38518 0.76889902
-0.41008201 2.2061501 0.76889902
0.17755599 2.60461 0.54708803
0.253014 2.50562 0.723979
0.134546 2.5871501 0.226605
0.134546 2.6062801 0.42776999
0.17755599 2.63888 0.39040801
0.17755599 2.6182001 0.35155201
0.200434 2.78146 0.079623602
-0.611184 2.0818501 0.76889902
0.134546 2.82516 0.088607602
0.214275 2.5591099 0.60383999
0.134546 2.8099201 0.087519601
-0.392299 2.2233801 0.76889902
0.17755599 2.8115301 0.124078
0.134546 2.7817299 0.220919
0.17755599 2.6240399 0.41958201
-0.52809501 2.35429 0.76889902
0.145594 2.50562 0.67446399
0.134546 2.5334301 0.66025299
0.19286799 2.5846601 0.64684898
-0.31428599 2.36674 0.76889902
0.134546 2.5676 0.17358901
-0.628205 2.2721 0.76889902
-0.24067201 2.5838399 0.73808903
-0.26337999 2.3704901 0.76889902
0.17755599 2.8584599 0.237258
0.134546 2.60201 0.64360499
0.134546 2.84324 0.050956301
0.134546 2.66799 0.25993401
-0.20367999 1.8938299 0.61020303
0.17755599 2.8612199 0.222058
-0.55716097 2.37236 0.76889902
0.17755599 2.68608 0.394153
0.17755599 2.5885 0.189132
0.134546 2.76597 0.40023699
0.134546 2.7096901 0.329299
0.17755599 2.86712 0.30989599
-0.19875599 1.88271 0.64284003
0.134546 2.7096601 0.287101
0.17755599 2.6663899 0.25895199
-0.57688397 2.3513999 0.76889902
0.28518 2.5550699 0.728926
0.17755599 2.8596599 0.2199
-0.24067201 2.4225299 0.68203801
-0.70594102 2.82181 0.76889902
-0.27894101 2.4493899 0.76889902
-0.589122 2.16342 0.76889902
0.134546 2.59324 0.34977499
0.191067 2.5550699 0.728558
-0.24067201 2.5088201 0.70832902
-0.51452702 2.35917 0.76889902
0.14759099 2.77091 0.74448699
0.134546 2.7139299 0.35914999
0.213439 2.52597 0.74448699
0.26276401 2.6702299 0.74448699
-0.345063 2.45926 0.76889902
-0.48771799 2.16486 0.76889902
0.134546 2.5797 0.16651
-0.24067201 1.88958 0.62021601
0.19525801 2.50562 0.45626
0.134546 2.76335 0.175173
0.17755599 2.51581 0.67545497
0.134546 2.5694101 0.43137401
-0.65048301 2.0056901 0.78110099
0.284724 2.81125 0.079623602
0.134546 2.6814699 0.15182
-0.24067201 2.3719001 0.673132
0.183365 2.6064501 0.72718602
-0.48683399 2.3866401 0.76889902
-0.50269598 2.25893 0.76889902
0.134546 2.6321399 0.3673
0.146419 2.50562 0.490105
0.17755599 2.75684 0.158141
0.134546 2.53473 0.457544
-0.71283698 2.80375 0.76889902
0.17755599 2.7920699 0.080568202
-0.68573701 2.06739 0.780316
-0.55071902 2.06739 0.778579
0.28492701 2.50562 0.61004198
0.28166601 2.6176801 0.60383999
-0.40746999 2.3447199 0.76889902
0.168736 2.7167101 0.710926
0.134546 2.8010099 0.134766
-0.70102 2.06774 0.76889902
0.25331399 2.58181 0.74448699
-0.24067201 2.4798999 0.72040898
-0.50755799 2.8505099 0.76889902
-0.39840701 2.3746901 0.76889902
0.134546 2.84813 0.37656301
0.175972 2.50562 0.67903298
0.249725 2.50562 0.42753601
-0.19352999 1.89337 0.62041801
0.134546 2.6024001 0.31446901
0.134546 2.8354299 0.166244
0.17755599 2.8552499 0.146476
-0.201575 1.9076101 0.59802997
0.139469 2.5741501 0.710926
-0.63937998 2.8271101 0.76889902
-0.24067201 2.3354199 0.60885799
0.134546 2.7676301 0.192284
0.25117099 2.53736 0.74448699
0.27189001 2.5954199 0.60383999
0.159178 2.50562 0.62490499
0.17755599 2.61921 0.34567899
0.134546 2.59583 0.61731398
-0.58177298 1.91061 0.78110099
0.17455301 2.50562 0.410552
-0.52249402 1.8875999 0.78110099
0.263717 2.50562 0.50155199
-0.27313 2.31675 0.76889902
-0.24067201 2.40324 0.65966398
-0.31428599 2.36674 0.76889902
0.134546 2.5502901 0.69007301
0.236366 2.7630999 0.079623602
-0.24067201 2.3785601 0.62342203
0.17755599 2.6875999 0.16684601
-0.53096402 2.1905701 0.76889902
0.199136 2.53353 0.74448699
0.134546 2.8131399 0.119416
0.214974 2.6475699 0.64684898
0.134546 2.5433099 0.56547701
0.134546 2.6603401 0.37457499
0.263138 2.6537499 0.64684898
0.134546 2.802 0.0715691
-0.188638 1.88099 0.56058902
0.26918799 2.7867 0.74448699
-0.52052402 2.36782 0.35393599
0.25991499 2.67804 0.74448699
0.220311 2.50699 0.60383999
0.134546 2.77967 0.287889
0.134546 2.69789 0.212185
-0.62446398 2.0253301 0.78110099
0.17755599 2.7691 0.145988
-0.53766602 1.95013 0.78110099
0.134546 2.5614901 0.36364099
0.284233 2.6120601 0.64684898
0.23859701 2.7516501 0.079623602
0.134546 2.8573301 0.25937799
0.238929 2.5318501 0.74448699
-0.65262401 2.00018 0.78110099
0.17755599 2.58024 0.366007
0.134546 2.5286601 0.196049
0.264265 2.50562 0.59382802
0.134546 2.6692901 0.53900999
0.17755599 2.59214 0.193435
-0.24067201 2.33795 0.75111699
0.17755599 2.8194201 0.25225401
0.134546 2.65011 0.48478001
0.134546 2.5928099 0.51013201
-0.52249402 1.8875999 0.78110099
0.134546 2.6166401 0.199861
0.26019299 2.51475 0.64684898
-0.24067201 2.6441901 0.73879099
-0.28684199 2.5992701 0.76889902
0.223499 2.7476201 0.079623602
0.17755599 2.74014 0.277053
0.17755599 2.7177899 0.36042899
0.134546 2.68309 0.25442001
0.134546 2.6672201 0.72883803
0.149919 2.50562 0.71649098
0.22831801 2.50562 0.46957299
-0.65262401 2.00018 0.78110099
0.134546 2.7321401 0.41874301
-0.24067201 2.5109501 0.69905502
-0.24067201 2.6366701 0.67921698
0.134546 2.5933399 0.22124
-0.24067201 2.66079 0.68183303
0.24153601 2.50562 0.58237898
-0.24067201 2.3322101 0.74861699
0.134546 2.63236 0.30700901
0.17755599 2.62483 0.269247
0.259433 2.7156601 0.74448699
-0.68041497 2.0264101 0.78110099
-0.58288699 2.34378 0.35393599
0.16011301 2.55601 0.74448699
-0.65262401 2.00018 0.78110099
0.134546 2.5257599 0.68823099
0.200434 2.78146 0.079623602
0.28315899 2.5362101 0.64684898
0.134546 2.62358 0.737544
0.17755599 2.7813201 0.30952501
0.17755599 2.73137 0.429728
0.17755599 2.8503499 0.215223
0.21224 2.7985899 0.079623602
0.134546 2.7676301 0.192284
0.134546 2.6637001 0.36250201
-0.31274599 2.43349 0.76889902
0.17755599 2.8031099 0.39487001
0.134546 2.7095799 0.42439201
-0.65438199 2.3278899 0.35393599
0.134546 2.5727799 0.26916099
0.220497 2.58939 0.74448699
-0.287256 2.5139899 0.76889902
0.134546 2.58764 0.17972
0.134546 2.5899799 0.61340499
0.231865 2.6549101 0.60383999
0.17755599 2.5967901 0.28171799
0.255027 2.8287599 0.079623602
-0.50905102 2.23066 0.76889902
0.17755599 2.7402899 0.120518
-0.24067201 2.3805799 0.63582999
0.259913 2.8376701 0.079623602
0.134546 2.5657699 0.36320201
0.134546 2.6918099 0.48854101
-0.26998201 2.5811901 0.76889902
0.17755599 2.58569 0.42085299
0.17755599 2.6338799 0.43000001
-0.70885998 2.41152 0.76889902
0.17755599 2.55792 0.39638901
0.24894699 2.7372301 0.74448699
0.17755599 2.74154 0.192352
0.134546 2.7333801 0.43429101
-0.24067201 2.4166501 0.74597198
0.17755599 2.82864 0.200745
0.134546 2.7447901 0.18020201
0.184609 2.5550699 0.73269999
-0.414886 2.21592 0.76889902
0.17755599 2.78599 0.27866799
0.17755599 2.6456599 0.34066901
-0.65026402 2.0462501 0.78110099
-0.24067201 2.52844 0.70314097
0.15376499 2.6528001 0.64684898
-0.48903599 2.3067601 0.76889902
0.134546 2.5285499 0.69647402
0.134546 2.56178 0.38198701
0.134546 2.5458701 0.65474701
-0.53719902 1.97721 0.78110099
0.263217 2.7400801 0.079623602
-0.68986899 2.35394 0.76889902
0.17755599 2.77895 0.266067
-0.50477099 2.8678501 0.76889902
0.134546 2.8356199 0.060036302
-0.24067201 2.4398999 0.696872
-0.27484101 2.53651 0.76889902
0.22700401 2.67033 0.74448699
-0.24067201 2.3580699 0.73787498
-0.24067201 1.88958 0.62021601
0.17755599 2.86362 0.138781
-0.53016102 2.28684 0.76889902
-0.18980099 1.89272 0.60442197
0.17755599 2.6263499 0.37939599
0.17755599 2.59214 0.193435
-0.35754499 2.2757299 0.76889902
-0.54564899 2.22471 0.76889902
0.17755599 2.74014 0.277053
-0.52191502 2.21137 0.76889902
-0.24067201 2.59183 0.71809
0.17755599 2.5864201 0.58845598
0.17755599 2.53056 0.41488501
0.20777801 2.7479701 0.079623602
-0.493054 2.38518 0.76889902
0.17755599 2.7780099 0.40479001
0.134546 2.5927 0.712569
-0.26311201 2.38815 0.76889902
0.17755599 2.7889299 0.27279499
0.17755599 2.6229999 0.38529199
0.134546 2.78496 0.192496
-0.70765799 2.36958 0.76889902
-0.64283198 2.40839 0.76889902
0.134546 2.7316501 0.097558901
0.18709201 2.60447 0.74448699
-0.24067201 2.3991399 0.64712697
-0.24067201 2.3850501 0.74636501
-0.60741901 2.0420101 0.78110099
0.134546 2.68309 0.25442001
-0.20478199 1.88328 0.61492902
0.134546 2.5911 0.171252
0.134546 2.73 0.241964
0.134546 2.5146999 0.65640002
0.17755599 2.5257001 0.47318199
0.17755599 2.5708799 0.39988199
0.17755599 2.69666 0.30242801
-0.24067201 2.4430201 0.75855303
0.134546 2.7219501 0.72851199
0.266013 2.50562 0.49276701
-0.24067201 2.3897099 0.717507
-0.48951599 2.2272601 0.76889902
0.134546 2.52528 0.614963
-0.62064302 1.94355 0.78110099
0.134546 2.5931301 0.27007401
-0.21201099 1.8844399 0.64594299
0.17755599 2.55533 0.58687103
0.17755599 2.77054 0.30773699
-0.59066802 2.34565 0.76889902
0.17755599 2.71874 0.38671499
0.25381699 2.71069 0.74448699
0.134546 2.82829 0.34555599
0.134546 2.6310301 0.598297
-0.397351 2.3895299 0.76889902
0.17755599 2.5362201 0.402771
-0.24067201 2.4027901 0.707075
-0.59443301 2.34111 0.35393599
-0.611184 2.0818501 0.76889902
0.17755599 2.8050399 0.35901901
0.17755599 2.6175699 0.53025901
-0.24067201 2.3391099 0.60059601
0.134546 2.68997 0.22523101
0.17755599 2.55266 0.536861
-0.540362 2.8501501 0.76889902
0.134546 2.70228 0.22258399
-0.397351 2.3895299 0.76889902
0.23942401 2.51177 0.74448699
-0.49398699 2.4084001 0.35393599
-0.57303798 2.0925901 0.76889902
0.134546 2.62727 0.21656699
0.134546 2.5433099 0.56547701
0.17755599 2.5109999 0.52239698
0.134546 2.8262999 0.352173
-0.61428499 2.02106 0.78110099
0.134546 2.5495999 0.62848997
0.134546 2.6784899 0.239926
0.17755599 2.81639 0.073082499
0.134546 2.5458 0.29830199
0.17755599 2.7407 0.338186
0.20777801 2.7479701 0.079623602
-0.24067201 1.88958 0.62021601
-0.71369201 2.8643899 0.76889902
-0.24067201 2.4578199 0.72150099
0.134546 2.6912701 0.409877
0.17755599 2.65413 0.58381301
-0.24067201 2.6283901 0.737064
0.17755599 2.7260799 0.36524501
0.134546 2.8343301 0.34812701
0.134546 2.5476601 0.72890902
0.17755599 2.80141 0.153026
-0.67776102 2.30199 0.76889902
-0.24067201 2.4130399 0.693874
0.17755599 2.61183 0.30846301
-0.24067201 2.45576 0.71919203
-0.29964 2.58498 0.76889902
0.17755599 2.7057099 0.43376401
0.134546 2.6310301 0.598297
0.27715299 2.50562 0.52453899
-0.35836601 2.4514301 0.76889902
0.240925 2.6517501 0.60383999
-0.30365801 2.5620999 0.76889902
0.17755599 2.59515 0.209089
0.134546 2.84324 0.050956301
-0.53149599 2.8518801 0.76889902
0.17755599 2.85271 0.142638
-0.57915401 2.06971 0.76889902
0.134546 2.7244799 0.131117
0.134546 2.70873 0.30893901
0.20037501 2.8085599 0.079623602
0.25737101 2.50562 0.57383698
0.25205401 2.50562 0.73204398
-0.30975601 2.2969699 0.76889902
0.17755599 2.5564001 0.172506
0.199422 2.50562 0.59785199
-0.262238 2.4936199 0.76889902
-0.24067201 2.5917399 0.67905402
0.134546 2.5812399 0.44119799
-0.28386801 2.5640299 0.76889902
-0.24067201 2.50506 0.66717601
0.17755599 2.86538 0.33149001
0.134546 2.7539699 0.175192
0.134546 2.58097 0.55291301
-0.57685101 2.37064 0.76889902
-0.566028 2.21731 0.76889902
0.28492701 2.50562 0.61004198
-0.24067201 2.4118299 0.76473898
0.20363399 2.79058 0.079623602
-0.19731 1.86808 0.63663697
0.17755599 2.8544099 0.219229
-0.51696301 1.87997 0.78110099
0.24822199 2.5256701 0.60383999
0.198304 2.50562 0.57164502
0.161128 2.50562 0.70873898
-0.24067201 2.6392701 0.73181701
0.17755599 2.6845601 0.208864
0.17755599 2.6259899 0.245727
-0.60280502 2.3209 0.76889902
-0.55242097 2.2457099 0.76889902
0.17755599 2.8651199 0.30008799
0.169801 2.50562 0.46786699
0.134546 2.5919399 0.17239299
0.134546 2.60783 0.51822799
0.19242001 2.6517999 0.60383999
0.230188 2.6636801 0.60383999
0.134546 2.59442 0.737149
0.182246 2.75159 0.079623602
-0.62509203 2.2263601 0.76889902
0.134546 2.86271 0.40053099
0.233693 2.5230601 0.64684898
0.17755599 2.6263499 0.37939599
-0.70860499 2.42664 0.76889902
0.215405 2.50562 0.446444
0.134546 2.5355101 0.468355
0.134546 2.76824 0.171652
0.17755599 2.79722 0.169756
0.22519401 2.6069 0.74448699
-0.24067201 1.86948 0.62860698
0.134546 2.59989 0.48879701
0.245795 2.50562 0.73068601
-0.24067201 2.4631 0.71924198
-0.40746999 2.3447199 0.76889902
0.226558 2.5225 0.710926
0.17755599 2.5852399 0.47650701
0.134546 2.7790301 0.227016
-0.201575 1.9076101 0.59802997
0.235394 2.50562 0.51353103
-0.36361399 2.34849 0.76889902
0.17755599 2.6556101 0.40217301
0.245795 2.50562 0.73068601
0.182739 2.64835 0.60383999
0.178207 2.5081799 0.74448699
0.134546 2.8658199 0.119907
-0.624533 2.8504 0.76889902
-0.24067201 2.51284 0.70333499
0.183365 2.6447899 0.72244501
0.17755599 2.8508999 0.23267099
0.134546 2.68835 0.34639001
-0.54791999 1.95103 0.78110099
0.134546 2.55848 0.508672
-0.33857599 2.3535099 0.76889902
0.134546 2.8645 0.356637
0.134546 2.56545 0.36357901
0.134546 2.7490799 0.0845806
-0.207045 1.89189 0.62463999
-0.56322598 1.8920799 0.78110099
-0.59670699 2.26842 0.76889902
0.17755599 2.5873201 0.41144601
0.253178 2.6812201 0.64684898
0.167115 2.6809001 0.74448699
0.134546 2.75034 0.73856199
0.234568 2.6706901 0.60383999
0.200243 2.7563 0.079623602
-0.44751099 2.36058 0.35393599
0.176047 2.50562 0.73237503
-0.512003 2.3101101 0.76889902
-0.253636 2.42503 0.76889902
-0.690988 2.32059 0.35393599
0.17755599 2.5920401 0.30928299
0.134546 2.6156299 0.57415402
0.15492199 2.6501801 0.710926
0.17755599 2.73841 0.23732799
-0.53386098 2.0827601 0.76889902
0.136544 2.50562 0.66028798
0.221246 2.8236799 0.079623602
-0.650639 2.33583 0.76889902
-0.419085 2.3717699 0.76889902
0.134546 2.82516 0.088607602
0.134546 2.6387999 0.493155
0.275365 2.5280001 0.60383999
-0.57702202 2.0182199 0.78110099
0.18585999 2.5271699 0.710926
0.25542799 2.5475399 0.74448699
0.134546 2.5286601 0.196049
0.134546 2.8339701 0.29705799
0.273148 2.82072 0.74448699
0.134546 2.7428 0.29089001
0.17755599 2.68293 0.42628399
-0.624533 2.8504 0.76889902
0.134546 2.64726 0.57528502
-0.30028501 2.52388 0.76889902
0.26665199 2.6068799 0.74448699
-0.41902801 2.38568 0.76889902
0.134546 2.61518 0.64619702
0.134546 2.7518599 0.33238199
0.17755599 2.6382799 0.19444001
-0.54966903 2.3815 0.35393599
-0.407121 2.3813801 0.76889902
0.15962 2.5550699 0.67169398
0.17755599 2.7242601 0.13871001
0.134546 2.5404999 0.70116699
-0.24974801 2.5531299 0.76889902
-0.58952898 2.1624 0.76889902
0.26138499 2.85797 0.079623602
0.17755599 2.58846 0.306122
-0.292436 2.5834 0.76889902
0.208644 2.50562 0.560624
0.134546 2.6600699 0.451608
0.134546 2.51806 0.58925903
0.198907 2.7397101 0.74448699
0.17755599 2.7443199 0.222232
0.134546 2.7167399 0.74359298
-0.54486197 2.3374701 0.76889902
0.17755599 2.6226599 0.29801899
0.134546 2.69484 0.43989
0.17755599 2.63711 0.24289501
0.17755599 2.7037599 0.203373
0.190771 2.6681099 0.64684898
0.17755599 2.7037599 0.203373
0.16203199 2.5568099 0.710926
-0.588857 2.3159299 0.76889902
-0.24067201 2.4118299 0.76473898
-0.24067201 2.60131 0.72215998
-0.24067201 2.41134 0.702196
0.17755599 2.61584 0.32157201
0.196095 2.5109401 0.74448699
0.25334999 2.50562 0.62139201
-0.488828 2.34182 0.76889902
0.134546 2.5919499 0.56417203
0.17599501 2.51191 0.710926
-0.37413201 2.3859999 0.76889902
0.219266 2.54039 0.60383999
0.17755599 2.79684 0.214607
0.134546 2.66799 0.25993401
0.17755599 2.7842901 0.215624
0.15112001 2.6656101 0.74448699
0.134546 2.5532899 0.37081
0.17755599 2.62486 0.24899299
0.134546 2.69309 0.20724601
0.237875 2.54215 0.710926
0.134546 2.61235 0.45315999
0.17755599 2.5904801 0.19374
0.144614 2.7281499 0.74448699
0.146419 2.50562 0.490105
0.17755599 2.5743899 0.60248297
0.17755599 2.5226901 0.70123702
0.134546 2.6084599 0.49974301
-0.244812 2.57513 0.76889902
0.19242001 2.6517999 0.60383999
-0.312186 2.3710799 0.76889902
0.156785 2.50562 0.58191502
-0.69042403 2.08459 0.76889902
-0.549963 1.94402 0.78110099
-0.57080901 2.06739 0.76994699
-0.24067201 2.5424399 0.73707801
0.22625799 2.75736 0.74448699
0.24315199 2.6393199 0.60383999
0.17755599 2.7286401 0.166895
0.21601599 2.50562 0.43693799
-0.33691099 2.3398099 0.76889902
-0.24067201 2.5478201 0.72194898
0.134546 2.5236499 0.53353602
0.17755599 2.5169301 0.695777
0.21224 2.7985899 0.079623602
0.17755599 2.5169301 0.695777
0.17755599 2.5984499 0.49963501
-0.57922202 2.0353701 0.78110099
0.17755599 2.61642 0.460563
0.17755599 2.5317299 0.53759098
0.17755599 2.6540101 0.256428
0.246491 2.50562 0.55739701
0.17755599 2.6136999 0.192285
0.17755599 2.71874 0.38671499
-0.24067201 2.3714001 0.60252601
-0.28606501 2.5269899 0.76889902
-0.48323399 2.2548699 0.76889902
0.134546 2.75295 0.337798
0.144998 2.74839 0.74448699
-0.20084301 2.32394 0.595375
-0.46230301 2.33671 0.76889902
0.15841299 2.6585901 0.64684898
-0.27234101 2.42941 0.76889902
-0.61808598 2.85043 0.76889902
-0.452766 2.24388 0.76889902
-0.37880701 2.27268 0.76889902
0.134546 2.7661099 0.34032199
