# .PCD v0.7 - Point Cloud Data file format
VERSION 0.7
FIELDS x y z
SIZE 4 4 4
TYPE F F F
COUNT 1 1 1
WIDTH 1469
HEIGHT 1
VIEWPOINT 0 0 0 1 0 0 0
POINTS 1469
DATA ascii
2.16818 2.5794699 1.12751e-07
2.12077 2.7156799 1.18705e-07
2.10671 2.39077 1.04503e-07
1.61552 1.9270999 8.4235403e-08
1.54395 1.8750401 8.1959698e-08
1.34943 2.1847301 9.5496603e-08
2.28405 2.06564 9.0291202e-08
1.50877 1.89561 8.2859202e-08
2.2323101 2.3882201 1.04391e-07
2.0663099 2.6542499 1.1602e-07
2.27335 2.31499 1.01191e-07
2.0302899 2.71699 1.18763e-07
1.6803 1.99799 8.7334001e-08
1.6884201 2.0964501 9.1637801e-08
2.1791301 2.5667701 1.12196e-07
2.27442 2.36256 1.0327e-07
2.10025 2.5010099 1.09321e-07
1.4922301 1.87527 8.1970001e-08
1.7398 1.9466799 8.50915e-08
2.05759 2.5646999 1.12105e-07
1.51878 2.14694 9.3844903e-08
2.2534599 2.3712001 1.03647e-07
2.09443 2.5734701 1.12489e-07
2.15171 1.8841799 8.23593e-08
2.2618999 2.7154601 1.18695e-07
1.75966 1.89631 8.28894e-08
2.2758901 2.1234801 9.2819597e-08
1.88664 1.86848 8.1673299e-08
2.1403401 2.61956 1.14504e-07
2.0371699 2.7053001 1.18251e-07
1.5150501 2.1735401 9.5007501e-08
2.1466999 1.93248 8.4470699e-08
1.74586 1.88668 8.2468503e-08
1.62587 1.87437 8.19307e-08
2.27772 2.1768301 9.51513e-08
1.52117 2.0685 9.0416101e-08
2.20755 2.7258201 1.19148e-07
1.66187 1.9388601 8.4749601e-08
1.6718 1.94324 8.4940801e-08
2.12304 2.97172 1.29897e-07
1.31047 3.06621 1.34027e-07
1.5194401 3.0857601 1.34882e-07
2.23174 2.9318299 1.28153e-07
1.4694999 3.08902 1.35024e-07
2.26215 2.9509101 1.28987e-07
1.38025 3.1122 0.00093197299
2.2241001 3.08722 1.3494601e-07
2.25191 2.91431 1.27387e-07
2.1702299 2.9319301 1.28157e-07
2.0955801 3.1101201 1.35947e-07
1.67193 3.10237 1.35608e-07
2.23911 3.03757 1.32775e-07
1.47127 3.0878899 1.34975e-07
2.2135 2.98914 1.3065799e-07
2.27388 2.9508801 1.28986e-07
2.2416201 2.95596 1.29208e-07
2.2747099 2.9184301 1.27568e-07
2.14241 2.9531 1.2908301e-07
2.0989799 3.0216899 1.32081e-07
2.16014 2.9346001 1.28274e-07
1.41394 3.05317 1.3345699e-07
2.27896 3.00649 1.31417e-07
1.61318 3.10851 1.3587599e-07
2.05707 2.8961101 1.26592e-07
1.43172 3.06601 1.3401799e-07
2.27249 2.90751 1.2709e-07
2.1579199 3.01057 1.31595e-07
2.23174 2.9318299 1.28153e-07
2.18119 3.09322 1.35208e-07
1.48809 3.06638 1.34034e-07
2.24863 2.9296601 1.28059e-07
1.41394 3.05317 1.3345699e-07
2.17171 3.00755 1.31463e-07
2.1215501 3.0209 1.32046e-07
1.39531 3.0922699 1.35166e-07
1.44574 3.1095901 1.35923e-07
2.1817999 2.91241 1.2730401e-07
1.32056 3.09093 1.35108e-07
2.1294501 2.9728701 1.29947e-07
2.26074 2.9933701 1.3084301e-07
1.54313 3.0915301 1.35134e-07
2.1823299 3.0549901 1.33537e-07
2.1817999 2.91241 1.2730401e-07
2.2258301 3.09144 1.3512999e-07
1.35811 3.01614 1.3183799e-07
1.34947 3.1122 0.00149791
1.3912801 3.0350599 1.32666e-07
1.5194401 3.0857601 1.34882e-07
1.35811 3.01614 1.3183799e-07
2.2045901 3.0232201 1.32148e-07
2.1484301 3.1122 0.0021686601
2.11479 3.1007099 1.35535e-07
2.1484301 3.1122 0.0021686601
2.2357099 2.8721099 1.25543e-07
2.1585901 3.0037301 1.3129601e-07
2.2029099 2.9835899 1.30416e-07
1.48765 3.09409 1.35246e-07
1.31497 3.0638599 1.33924e-07
2.1579199 3.01057 1.31595e-07
2.1579199 3.01057 1.31595e-07
2.1579199 3.01057 1.31595e-07
1.48809 3.06638 1.34034e-07
2.2369101 3.1057501 1.35755e-07
2.2574301 3.05299 1.3344901e-07
2.18119 3.09322 1.35208e-07
2.13064 3.0134001 1.3171901e-07
2.2323201 2.8820601 1.25978e-07
2.13064 3.0134001 1.3171901e-07
1.31897 3.0839701 1.34804e-07
1.36251 3.03022 1.3245401e-07
2.1617301 3.03036 1.3246e-07
1.34323 3.0304699 1.32465e-07
1.3796901 3.0706201 1.3422e-07
1.60096 3.1122 0.00035603801
1.3818001 2.8954699 1.26564e-07
2.21 3.0215001 1.32073e-07
2.21366 3.1122 0.0090810498
2.1842201 3.01507 1.3179201e-07
1.43994 3.05459 1.3351899e-07
2.23049 3.1122 0.00181492
1.60096 3.1122 0.00035603801
2.19192 2.9080701 1.27115e-07
1.30665 3.1078999 1.3584901e-07
2.0750899 3.08288 1.3475599e-07
2.18049 2.8817301 1.25963e-07
2.16151 2.8807499 1.2592101e-07
1.39113 3.00735 1.31454e-07
1.2977099 3.0738699 1.34362e-07
1.43172 3.06601 1.3401799e-07
2.1809001 3.01437 1.31761e-07
2.2190299 2.9240699 1.27814e-07
2.1157501 3.0414701 1.32946e-07
2.17378 2.86818 1.25371e-07
2.16522 3.1122 0.00518151
1.39531 3.0922699 1.35166e-07
2.1343801 2.9028001 1.26884e-07
1.37025 3.0129499 1.31699e-07
2.14395 3.0427699 1.33002e-07
2.2179401 3.0756299 1.3443901e-07
1.30178 3.0908301 1.3510299e-07
2.2710199 2.9307799 1.28108e-07
2.2241001 3.08722 1.3494601e-07
2.2029099 2.9835899 1.30416e-07
2.12304 2.97172 1.29897e-07
1.37892 3.0071299 1.3144501e-07
2.2314701 3.0481601 1.33238e-07
1.5412 3.0927601 1.35188e-07
1.4694999 3.08902 1.35024e-07
1.39531 3.0922699 1.35166e-07
1.39551 3.0644901 1.33952e-07
2.17103 2.9765899 1.3011e-07
2.16027 2.91838 1.27565e-07
1.54313 3.0915301 1.35134e-07
2.1487601 2.8875699 1.2621901e-07
1.47401 3.0583601 1.33684e-07
2.22035 2.93713 1.28385e-07
2.20012 2.9474699 1.28837e-07
2.1010599 2.8710599 1.25497e-07
1.38153 3.0445299 1.3307999e-07
2.12304 2.97172 1.29897e-07
2.20171 2.94928 1.28916e-07
2.0989799 3.0216899 1.32081e-07
2.1888499 3.0215399 1.32075e-07
2.0794101 3.10517 1.3573001e-07
2.1005399 2.91835 1.2756399e-07
1.36046 3.06651 1.3403999e-07
2.08251 3.0746 1.34394e-07
2.1858499 2.9872401 1.30575e-07
1.38817 2.93156 1.2814201e-07
2.27336 3.00365 1.3129301e-07
2.1066699 2.99228 1.30795e-07
1.51194 3.0902901 1.3508e-07
1.3882 2.9837301 1.3042199e-07
2.09568 2.8738 1.2561701e-07
2.2144699 2.9628899 1.2951099e-07
2.14258 3.0992701 1.3547201e-07
2.1294501 2.9728701 1.29947e-07
2.21857 3.0304 1.3246201e-07
2.165 2.9677701 1.29724e-07
1.31497 3.0638599 1.33924e-07
2.0810499 2.95134 1.29006e-07
2.1579199 3.01057 1.31595e-07
1.5412 3.0927601 1.35188e-07
2.1842201 3.01507 1.3179201e-07
1.40309 3.0794899 1.34608e-07
2.1791401 3.0015399 1.3120101e-07
1.3912801 3.0350599 1.32666e-07
2.1261699 2.9861901 1.30529e-07
1.39531 3.0922699 1.35166e-07
1.36251 3.03022 1.3245401e-07
2.2390001 2.9648399 1.29596e-07
2.0680201 2.9184501 1.27568e-07
2.217 2.8913701 1.26385e-07
1.69355 3.1061499 1.3577301e-07
2.1215501 3.0209 1.32046e-07
2.0750899 3.08288 1.3475599e-07
2.0920899 3.0581901 1.3367701e-07
2.2710199 2.9307799 1.28108e-07
2.1478701 2.94347 1.2866199e-07
2.21207 2.9358001 1.28327e-07
1.4013799 3.0243101 1.3219601e-07
1.3069 3.1122 0.0013539999
2.08726 2.88748 1.26215e-07
2.20171 2.94928 1.28916e-07
2.2680299 2.9992001 1.3109801e-07
1.36221 3.0366199 1.32734e-07
1.35641 3.02122 1.32061e-07
2.1129999 2.9841101 1.30438e-07
2.2611201 3.0304999 1.32466e-07
2.1010599 2.8710599 1.25497e-07
1.43172 3.06601 1.3401799e-07
2.2487099 2.9828701 1.30384e-07
1.46464 3.08793 1.3497601e-07
2.26074 2.9933701 1.3084301e-07
2.2746601 3.0356901 1.32693e-07
2.15029 3.00859 1.31509e-07
1.2977099 3.0738699 1.34362e-07
1.40516 3.04598 1.33143e-07
2.18049 2.8817301 1.25963e-07
2.2179401 3.0756299 1.3443901e-07
2.0808001 2.8894999 1.2630299e-07
2.2010901 3.03144 1.32507e-07
1.38896 2.9807501 1.3029199e-07
1.4694999 3.08902 1.35024e-07
1.46802 3.1113601 1.3600101e-07
2.23491 3.1122 5.1672701e-05
2.2718101 3.0111301 1.3162e-07
1.37954 2.9751699 1.3004799e-07
2.25191 2.91431 1.27387e-07
2.21962 2.9427099 1.28629e-07
2.2241001 3.08722 1.3494601e-07
2.2509201 3.0704601 1.34213e-07
2.1461699 2.9017799 1.2684001e-07
2.1791401 3.0015399 1.3120101e-07
2.2357099 2.8721099 1.25543e-07
2.09496 2.8755 1.25691e-07
1.38817 2.93156 1.2814201e-07
2.22528 3.0657101 1.3400501e-07
1.36046 3.06651 1.3403999e-07
2.07353 3.1122 0.0107008
2.217 2.8913701 1.26385e-07
3.22507 -2.3085401 -1.00909e-07
3.1006501 -2.28859 -1.00037e-07
2.64063 -2.36566 -1.03405e-07
2.3257101 -2.23225 -9.7573803e-08
2.8765399 -2.2198 -9.7029599e-08
3.0836501 -2.1774499 -9.5178599e-08
2.2895 -2.29598 -1.00359e-07
2.57652 -2.37992 0.034396101
2.9109299 -2.16944 -9.4828501e-08
2.59777 -2.31703 -1.0128e-07
2.4332399 -2.3647399 -1.03365e-07
3.0448599 -2.35956 -1.03139e-07
2.4737301 -2.1881499 -9.5646399e-08
3.11269 -2.27264 -9.9339204e-08
3.18944 -2.2676499 -9.9121401e-08
2.90171 -2.2641499 -9.8968201e-08
3.25684 -2.19502 -9.5946604e-08
2.6463101 -2.36624 -1.03431e-07
2.9202099 -2.3612499 -1.03212e-07
2.4992599 -2.26492 -9.9002001e-08
2.6580701 -2.2976501 -1.00433e-07
2.97978 -2.2934799 -1.0025e-07
2.5595 -2.37992 0.037574898
3.06828 -2.2438099 -9.8079298e-08
2.3619299 -2.2014501 -9.6227403e-08
2.52192 -2.3698001 -1.03586e-07
2.29615 -2.1522701 -9.4077997e-08
2.70909 -2.27669 -9.9516299e-08
2.9154899 -2.2100899 -9.6605397e-08
2.9624801 -2.37992 0.0121373
2.66359 -2.36744 -1.03483e-07
3.12202 -2.3472199 -1.02599e-07
3.2723601 -2.13485 -9.3316203e-08
3.20714 -2.32552 -1.01651e-07
2.3829601 -2.3201799 -1.01417e-07
2.54772 -2.2470901 -9.82226e-08
2.9233601 -2.1837399 -9.5453402e-08
3.09759 -2.22159 -9.7107801e-08
3.1677001 -2.19783 -9.6069101e-08
2.9023099 -2.2435701 -9.8068703e-08
2.65728 -2.3645101 -1.03355e-07
2.8029799 -2.3334601 -1.01998e-07
2.8945301 -2.1673801 -9.4738098e-08
3.0502601 -2.35727 -1.03039e-07
3.0136399 -2.25686 -9.86497e-08
2.6819799 -2.37992 0.0288659
2.8149199 -2.3484099 -1.02651e-07
3.1104801 -2.1760299 -9.5116299e-08
2.53566 -2.37992 0.0134476
3.0873599 -2.1726699 -9.4969401e-08
2.59777 -2.31703 -1.0128e-07
3.13117 -2.3476901 -1.0262e-07
2.31864 -2.2463601 -9.8190498e-08
3.0971701 -2.3101599 -1.00979e-07
2.35304 -2.36533 -1.03391e-07
3.1027601 -2.28619 -9.9931803e-08
2.4790399 -2.25699 -9.8655399e-08
2.48453 -2.3561599 -1.0299e-07
2.9379201 -2.3199401 -1.01407e-07
2.35513 -2.3074501 -1.00861e-07
2.3178401 -2.14818 -9.3899096e-08
2.7832501 -2.1902399 -9.5737697e-08
3.12202 -2.3472199 -1.02599e-07
2.30351 -2.17752 -9.5181598e-08
2.41205 -2.2804201 -9.9679497e-08
2.5703101 -2.2144899 -9.6797699e-08
2.8191199 -2.37992 0.0041034399
2.4335201 -2.1754999 -9.5093398e-08
3.10041 -2.1465399 -9.3827197e-08
2.5375199 -2.37992 0.038484
3.0922999 -2.37992 0.022358
2.44648 -2.21785 -9.6944298e-08
3.2183499 -2.1625199 -9.4526101e-08
3.0580201 -2.37992 0.0033498299
2.43578 -2.3533599 -1.02868e-07
2.40627 -2.2209799 -9.7081298e-08
3.1523099 -2.33533 -1.02079e-07
3.21416 -2.19297 -9.5856798e-08
2.41205 -2.2804201 -9.9679497e-08
2.9932799 -2.2674601 -9.9113002e-08
2.7737501 -2.2597499 -9.8776098e-08
2.43752 -2.37992 0.032811899
3.1503699 -2.1821599 -9.5384202e-08
2.9679201 -2.3587201 -1.03102e-07
2.4797201 -2.3280001 -1.01759e-07
2.4328699 -2.3129399 -1.01101e-07
2.6108999 -2.2378399 -9.7818202e-08
3.1338999 -2.3201201 -1.01415e-07
2.5764999 -2.3309 -1.01886e-07
2.44818 -2.37992 0.00484192
2.8526001 -2.20874 -9.6546202e-08
2.9071701 -2.3440001 -1.02459e-07
2.47715 -2.37992 0.0339882
2.3484099 -2.37992 0.00952652
3.1101999 -2.29774 -1.00436e-07
3.11361 -2.30195 -1.00621e-07
2.8162999 -2.3761699 -1.03865e-07
2.37502 -2.3330801 -1.01981e-07
2.8561599 -2.27387 -9.9393198e-08
2.80287 -2.1781499 -9.5209202e-08
2.7119901 -2.2387199 -9.7856898e-08
2.8661699 -2.27215 -9.9317802e-08
3.0351501 -2.24034 -9.7927398e-08
2.3933101 -2.16589 -9.4673403e-08
2.4685299 -2.1356001 -9.33492e-08
2.2922299 -2.1629601 -9.45453e-08
3.14024 -2.18436 -9.5480701e-08
2.66359 -2.36744 -1.03483e-07
3.1756599 -2.2365501 -9.77616e-08
3.1327 -2.1912501 -9.57818e-08
2.8769 -2.31705 -1.01281e-07
2.89048 -2.2838099 -9.9827801e-08
2.4791 -2.2212501 -9.7093199e-08
2.60116 -2.35446 -1.02916e-07
2.66624 -2.2731299 -9.9360697e-08
2.4335201 -2.1754999 -9.5093398e-08
2.7771001 -2.2055199 -9.6405401e-08
2.5018301 -2.37992 0.0167093
2.7623 -2.2397399 -9.79013e-08
2.3178401 -2.14818 -9.3899096e-08
2.9333799 -2.37992 0.0096856104
2.3347299 -2.37992 0.0192967
2.3346601 -2.3322401 -1.01945e-07
2.46942 -2.2107699 -9.66348e-08
2.8824699 -2.1346099 -9.33058e-08
2.2893801 -2.178 -9.52028e-08
2.36222 -2.37992 0.0117403
2.8494 -2.27367 -9.9384401e-08
3.1440699 -2.16275 -9.45358e-08
2.65728 -2.3645101 -1.03355e-07
2.4523399 -2.2268901 -9.7339402e-08
3.2384601 -2.1512001 -9.4031201e-08
3.0190101 -2.3103199 -1.00986e-07
2.6753399 -2.29129 -1.00155e-07
2.9154899 -2.2100899 -9.6605397e-08
2.8945301 -2.1673801 -9.4738098e-08
2.96082 -2.2894001 -1.00072e-07
2.65097 -2.3450699 -1.02505e-07
2.3518701 -2.2371199 -9.7786803e-08
3.1325099 -2.21421 -9.67853e-08
2.4788899 -2.37992 0.036810499
2.9678099 -2.1905501 -9.5751197e-08
2.4791 -2.2212501 -9.7093199e-08
2.3831699 -2.1473899 -9.38645e-08
3.1289999 -2.37992 0.0070403698
2.91501 -2.29159 -1.00167e-07
3.1385601 -2.37992 0.0045641302
2.6804299 -2.31354 -1.01127e-07
2.3972399 -2.2627599 -9.8907599e-08
2.8982699 -2.23297 -9.7605302e-08
2.6283 -2.2128899 -9.6727497e-08
2.5776701 -2.2149601 -9.6817899e-08
2.2956901 -2.37992 0.039909001
3.14553 -2.1486499 -9.3919603e-08
2.53385 -2.33178 -1.01925e-07
2.7465 -2.2508099 -9.83853e-08
2.59477 -2.2771001 -9.9534098e-08
2.98878 -2.30457 -1.00735e-07
3.2005601 -2.1628799 -9.4541598e-08
3.12569 -2.37992 0.00214776
3.0466599 -2.3155899 -1.01217e-07
2.9426701 -2.2402 -9.7921202e-08
2.7857399 -2.1837599 -9.5454297e-08
3.0650001 -2.3728199 -1.03718e-07
3.27314 -2.1972101 -9.6042299e-08
2.41205 -2.2804201 -9.9679497e-08
2.83091 -2.36238 -1.03262e-07
2.8247399 -2.24734 -9.82334e-08
2.9734399 -2.2579601 -9.8697903e-08
3.03354 -2.3373301 -1.02167e-07
2.8029799 -2.3334601 -1.01998e-07
3.21135 -2.1336801 -9.3265399e-08
2.8459599 -2.2469101 -9.8214798e-08
3.0650001 -2.3728199 -1.03718e-07
2.89288 -2.2063401 -9.6441298e-08
2.7488899 -2.37992 0.0105706
2.75915 -2.37992 0.0054674302
2.75368 -2.2291801 -9.7439496e-08
2.8856201 -2.31826 -1.01333e-07
2.85816 -2.2978599 -1.00442e-07
2.8963499 -2.37992 0.0305882
2.75406 -2.37992 0.0149711
3.17665 -2.2630799 -9.8921397e-08
2.5187399 -2.1772499 -9.5170002e-08
2.5210199 -2.35114 -1.02771e-07
2.72874 -2.3788099 -1.0398e-07
2.44066 -2.23312 -9.7612002e-08
3.16363 -2.1853399 -9.5523198e-08
2.5694001 -2.37992 0.039802399
3.184 -2.13868 -9.3483997e-08
2.9031601 -2.19749 -9.6054599e-08
2.74317 -2.2694099 -9.9197997e-08
2.80476 -2.3276401 -1.01744e-07
2.76845 -2.2867899 -9.9957802e-08
3.0190101 -2.3103199 -1.00986e-07
3.09095 -2.29984 -1.00528e-07
2.2958601 -2.27038 -9.92408e-08
3.1762099 -2.2837601 -9.98253e-08
3.2713499 -2.1461799 -9.38117e-08
3.1677001 -2.19783 -9.6069101e-08
2.85765 -2.37186 -1.03676e-07
3.02826 -2.21773 -9.6939097e-08
2.69138 -2.30967 -1.00958e-07
3.0682399 -2.16523 -9.4644399e-08
2.30791 -2.2412801 -9.7968503e-08
2.3002501 -2.1958399 -9.5982301e-08
2.4348199 -2.15044 -9.3997699e-08
2.8554399 -2.37992 0.016901501
2.81235 -2.2895601 -1.00079e-07
2.8621299 -2.1931901 -9.5866397e-08
2.8454599 -2.3103299 -1.00987e-07
3.19294 -2.3031099 -1.00671e-07
2.53069 -2.30058 -1.0056e-07
2.43414 -2.2037301 -9.6327298e-08
3.20769 -2.2104299 -9.6620198e-08
3.23805 -2.17115 -9.49031e-08
2.9999599 -2.24212 -9.8005401e-08
3.26914 -2.1942201 -9.5911702e-08
2.91816 -2.32953 -1.01826e-07
2.7344601 -2.35305 -1.02854e-07
2.2922299 -2.1629601 -9.45453e-08
2.47137 -2.2919199 -1.00182e-07
2.3127799 -2.17329 -9.4996601e-08
3.27757 -2.1795299 -9.52693e-08
2.55424 -2.2789199 -9.96138e-08
2.3777599 -2.34498 -1.02501e-07
2.9484 -2.2114699 -9.6665602e-08
3.20485 -2.3615201 -1.03224e-07
2.9372201 -2.3155601 -1.01215e-07
2.4317999 -2.32269 -1.01527e-07
2.4407201 -2.1712301 -9.4906603e-08
2.65097 -2.3450699 -1.02505e-07
2.97437 -2.35623 -1.02993e-07
3.0707901 -2.2608299 -9.8823001e-08
2.8406501 -2.35639 -1.03e-07
3.1484101 -2.27055 -9.9247899e-08
2.90346 -2.13623 -9.3376599e-08
2.4602101 -2.2731299 -9.9361003e-08
2.5694101 -2.2383299 -9.7839497e-08
3.07528 -2.16469 -9.4620802e-08
2.5711901 -2.2894199 -1.00073e-07
3.11343 -2.18839 -9.5656702e-08
2.90253 -2.33618 -1.02117e-07
3.1608901 -2.25774 -9.8687998e-08
2.6187799 -2.2550499 -9.8570403e-08
3.0392499 -2.2541201 -9.8529902e-08
2.91258 -2.2063701 -9.6442797e-08
3.23036 -2.3477001 -1.0262e-07
2.44818 -2.37992 0.00484192
3.11954 -2.2126 -9.6715098e-08
2.52636 -2.2994399 -1.00511e-07
2.9154899 -2.2100899 -9.6605397e-08
2.4790399 -2.25699 -9.8655399e-08
3.1710899 -2.1451199 -9.3765301e-08
2.45577 -2.3413899 -1.02344e-07
2.56073 -2.28793 -1.00008e-07
2.75406 -2.37992 0.0149711
2.9988501 -2.18099 -9.5333398e-08
2.7938299 -2.19577 -9.5979402e-08
3.0529699 -2.17659 -9.5140798e-08
3.1818099 -2.2715299 -9.9290602e-08
2.92735 -2.37992 0.029934401
2.29321 -2.37992 0.0050530802
2.7271399 -2.3139901 -1.01147e-07
2.5836799 -2.37356 -1.0375e-07
3.2035 -2.2902701 -1.0011e-07
2.41205 -2.2804201 -9.9679497e-08
2.8526001 -2.20874 -9.6546202e-08
3.1608901 -2.25774 -9.8687998e-08
2.8541901 -2.3354101 -1.02083e-07
2.4737301 -2.1881499 -9.5646399e-08
2.9065101 -2.3183601 -1.01338e-07
2.6704099 -2.36515 -1.03383e-07
3.0780799 -2.2905099 -1.00121e-07
3.1293499 -2.24104 -9.7958001e-08
3.18277 -2.3639801 -1.03332e-07
2.96559 -2.3224699 -1.01517e-07
2.6946299 -2.2819901 -9.9747901e-08
2.32093 -2.18348 -9.5441898e-08
2.3088701 -2.1738801 -9.5022401e-08
2.5018201 -1.1966 -5.2304799e-08
2.45684 -1.23826 -5.4125799e-08
2.4207699 -1.41064 -6.1660302e-08
2.2922399 -1.26378 -5.52409e-08
2.4854901 -1.28055 -5.5973999e-08
2.52391 -1.14314 -4.99676e-08
2.57162 -1.15997 -5.07032e-08
2.2944601 -1.2829 -5.60768e-08
2.46962 -1.3081501 -5.7180401e-08
2.3931 -1.40819 -6.15536e-08
2.47752 -1.24475 -5.4409501e-08
2.3210101 -1.3979 -6.11034e-08
2.3134999 -1.4903899 -6.5146402e-08
2.4000499 -1.2668101 -5.5373398e-08
2.36027 -1.4506 -6.34071e-08
2.2973199 -1.49239 -6.5233998e-08
2.5998099 -1.1380399 -4.9744799e-08
2.2860501 -1.3269399 -5.8002001e-08
2.5167401 -1.1645499 -5.0903701e-08
2.57886 -1.18448 -5.1774801e-08
2.5163901 -1.2616 -5.5145598e-08
2.37608 -1.2000901 -5.2457199e-08
2.2978499 -1.3484499 -5.8942199e-08
2.46119 -1.23709 -5.4074601e-08
2.6005599 -1.1637501 -5.0868699e-08
2.65927 -1.15258 -5.03804e-08
2.59764 -1.15244 -5.03744e-08
2.44839 -1.19302 -5.2148099e-08
2.45509 -1.37919 -6.0285799e-08
2.38851 -1.17592 -5.14008e-08
2.40588 -1.3925 -6.0867798e-08
2.31545 -1.52459 -6.6641498e-08
2.51741 -1.25115 -5.4689099e-08
2.4695401 -1.17195 -5.1227101e-08
2.55281 -1.1906199 -5.2043301e-08
2.3273499 -1.24343 -5.4351599e-08
2.33056 -1.46062 -6.3845199e-08
2.46205 -1.28818 -5.6307801e-08
2.56025 -1.23684 -5.4063499e-08
2.40926 -1.35817 -5.9366901e-08
2.41641 -1.14465 -5.0033702e-08
2.35151 -1.27705 -5.5821101e-08
2.5654399 -1.22764 -5.3661399e-08
2.3651099 -1.47272 -6.4374099e-08
2.3401699 -1.22925 -5.37317e-08
2.3239801 -1.3096499 -5.72463e-08
2.3791201 -1.17317 -5.12802e-08
2.59163 -1.2084301 -5.28218e-08
2.5866101 -1.1367199 -4.9687198e-08
2.41466 -1.2094001 -5.2863999e-08
2.2906201 -1.39135 -6.0817101e-08
2.4047 -1.24234 -5.4304e-08
2.5139501 -1.30171 -5.68992e-08
2.2980599 -1.29239 -5.64918e-08
2.48598 -1.14201 -4.9918601e-08
2.47159 -1.28723 -5.6266298e-08
2.32881 -1.30629 -5.70992e-08
2.4380901 -1.18695 -5.18829e-08
2.33092 -1.29667 -5.6678701e-08
2.36655 -1.2103601 -5.2906199e-08
2.4113801 -1.15381 -5.0434402e-08
2.3148999 -1.51919 -6.64052e-08
2.3257699 -1.5368 -6.7175201e-08
2.4019001 -1.25667 -5.4930101e-08
2.43786 -1.41699 -6.1938003e-08
2.36252 -1.21338 -5.30382e-08
2.34832 -1.32837 -5.80646e-08
2.52687 -1.15662 -5.0556999e-08
2.5406401 -1.23633 -5.4041401e-08
2.3886499 -1.43145 -6.2570102e-08
2.3897901 -1.35059 -5.9035798e-08
2.41079 -1.32085 -5.7735601e-08
2.48719 -1.1804301 -5.1597901e-08
2.4511099 -1.3569601 -5.93141e-08
2.4063201 -1.33288 -5.8261499e-08
2.3680301 -1.46631 -6.4094003e-08
2.48171 -1.29329 -5.6531e-08
2.5576301 -1.1617399 -5.0780798e-08
2.3396399 -1.4223599 -6.2172603e-08
2.3092501 -1.45559 -6.3625201e-08
2.46889 -1.21742 -5.3214599e-08
2.2904 -1.5833 -6.9207601e-08
2.4258299 -1.17943 -5.1554e-08
2.44101 -1.22732 -5.3647401e-08
2.3239701 -1.53611 -6.7144697e-08
2.50577 -1.29944 -5.6799799e-08
2.3376701 -1.38554 -6.0563401e-08
2.4137299 -1.44399 -6.31183e-08
2.30951 -1.4561599 -6.3650099e-08
2.4290299 -1.20235 -5.2556e-08
2.3287699 -1.29799 -5.67365e-08
2.5408399 -1.21656 -5.31772e-08
2.3180599 -1.51889 -6.6391998e-08
2.4038601 -1.25455 -5.4837798e-08
2.43292 -1.39868 -6.1137797e-08
2.4913099 -1.3538001 -5.9176099e-08
2.32391 -1.49787 -6.54735e-08
2.3726799 -1.48851 -6.5064299e-08
2.38889 -1.32415 -5.7880001e-08
2.335 -1.23077 -5.3798399e-08
2.50054 -1.14446 -5.0025601e-08
2.4040301 -1.40362 -6.1353802e-08
2.3086901 -1.44981 -6.3372703e-08
2.5497899 -1.2399 -5.41974e-08
2.5611501 -1.20778 -5.2793201e-08
2.4500301 -1.2453901 -5.4437301e-08
2.38691 -1.28538 -5.6185101e-08
2.3631999 -1.41292 -6.1760197e-08
2.3587101 -1.2223099 -5.3428501e-08
2.44642 -1.3789001 -6.0273202e-08
2.33025 -1.3422199 -5.8669801e-08
2.45029 -1.35191 -5.90932e-08
2.4660299 -1.27053 -5.5536098e-08
2.3247099 -1.4895 -6.51075e-08
2.47823 -1.1822701 -5.16781e-08
2.4547801 -1.2833101 -5.6094901e-08
2.3392501 -1.44718 -6.3257602e-08
2.3858199 -1.32525 -5.7927998e-08
2.35516 -1.42421 -6.2253797e-08
2.32936 -1.273 -5.56443e-08
2.52246 -1.20963 -5.2874e-08
2.5355401 -1.17537 -5.1376801e-08
2.32936 -1.42428 -6.2256902e-08
2.3654101 -1.37271 -6.0002598e-08
2.2985699 -1.41731 -6.19521e-08
2.5441899 -1.21893 -5.3280601e-08
2.3589101 -1.36734 -5.9767999e-08
2.4065599 -1.44735 -6.3265098e-08
2.49563 -1.1835001 -5.1731799e-08
2.33534 -1.31417 -5.74437e-08
2.57939 -1.22206 -5.3417502e-08
2.39201 -1.42758 -6.2400801e-08
2.3313 -1.37938 -6.0294099e-08
2.2867801 -1.55397 -6.7925498e-08
2.3796101 -1.21892 -5.32802e-08
2.39222 -1.33207 -5.8226e-08
2.43121 -1.22491 -5.3542198e-08
2.5769501 -1.22227 -5.34267e-08
2.30986 -1.3551199 -5.9233798e-08
2.2930701 -1.40939 -6.1605903e-08
2.3159399 -1.2495 -5.4616699e-08
2.5524399 -1.16439 -5.0896599e-08
2.4554 -1.15306 -5.04015e-08
2.33354 -1.24529 -5.44328e-08
2.5044899 -1.29913 -5.6786199e-08
2.2939601 -1.32085 -5.7735601e-08
2.2938399 -1.56315 -6.8326798e-08
2.4181001 -1.42689 -6.2371001e-08
2.47804 -1.24147 -5.4265701e-08
2.3740101 -1.36537 -5.9681597e-08
2.35006 -1.4773 -6.4574301e-08
2.45104 -1.19678 -5.2312501e-08
2.34532 -1.46797 -6.41664e-08
2.32886 -1.31981 -5.76904e-08
2.3452101 -1.28548 -5.6189801e-08
2.4707699 -1.28102 -5.5994601e-08
2.5378699 -1.20714 -5.2765099e-08
2.6259699 -1.15851 -5.06395e-08
2.42874 -1.13511 -4.9616599e-08
2.3954899 -1.25635 -5.49161e-08
2.33518 -1.43914 -6.2906402e-08
2.3787899 -1.24938 -5.4611601e-08
2.45785 -1.20028 -5.24653e-08
2.4881999 -1.2521 -5.4730599e-08
2.3777001 -1.21832 -5.3253899e-08
2.56247 -1.13214 -4.94868e-08
2.4259 -1.2548701 -5.4851501e-08
2.3862 -1.41099 -6.1675699e-08
2.4168899 -1.37974 -6.0309702e-08
2.57217 -1.21968 -5.33133e-08
2.3994501 -1.32683 -5.79969e-08
2.6257601 -1.1639301 -5.0876402e-08
2.49757 -1.13705 -4.9701701e-08
2.34481 -1.33925 -5.8539801e-08
2.3804801 -1.18451 -5.1776301e-08
2.32323 -1.31251 -5.7371e-08
2.4357901 -1.196 -5.2278502e-08
2.4156001 -1.20307 -5.2587598e-08
2.4797499 -1.31505 -5.7482001e-08
2.40417 -1.20748 -5.2780202e-08
2.5023 -1.19573 -5.2266401e-08
2.4309001 -1.23168 -5.3838001e-08
2.4565401 -1.29045 -5.6407099e-08
2.3581901 -1.2272 -5.3642101e-08
2.57005 -1.15116 -5.0318398e-08
2.3951499 -1.43477 -6.2715003e-08
2.3644099 -1.3105 -5.7283501e-08
2.3743601 -1.45964 -6.3802197e-08
2.2873299 -1.2816499 -5.6022301e-08
2.3857801 -1.44024 -6.2954499e-08
2.4251001 -1.31994 -5.7696099e-08
2.4209001 -1.22006 -5.3330002e-08
2.4964099 -1.33158 -5.8204801e-08
2.5052299 -1.26529 -5.5307201e-08
2.3490901 -1.34998 -5.9009e-08
2.40975 -1.33702 -5.84423e-08
2.51495 -1.30135 -5.6883401e-08
2.35869 -1.4845999 -6.4893499e-08
2.4535301 -1.32337 -5.7845899e-08
2.4019699 -1.16198 -5.07914e-08
2.4056599 -1.19464 -5.2218699e-08
2.3543301 -1.34238 -5.86768e-08
2.38241 -1.39882 -6.1144e-08
2.4458301 -1.33364 -5.8295001e-08
2.3297701 -1.4246 -6.22708e-08
2.35285 -1.42733 -6.2389802e-08
2.6055801 -1.16565 -5.09519e-08
2.5347099 -1.1322 -4.9489401e-08
2.3446801 -1.44973 -6.3369001e-08
2.6015899 -1.17884 -5.1528499e-08
2.42974 -1.15035 -5.02829e-08
2.57078 -1.22355 -5.3482498e-08
2.4522099 -1.22373 -5.3490201e-08
2.31339 -1.55243 -6.7858302e-08
2.40065 -1.42787 -6.2413697e-08
2.3247299 -1.36401 -5.9622302e-08
2.3606999 -1.46209 -6.3909198e-08
2.3441401 -1.45665 -6.36716e-08
2.29546 -1.54158 -6.7383901e-08
2.4383299 -1.3769 -6.0185698e-08
2.4146399 -1.41371 -6.1794701e-08
2.4625499 -1.17471 -5.13479e-08
2.3432 -1.41596 -6.1892997e-08
2.4042799 -1.3328201 -5.8259001e-08
2.3052399 -1.27729 -5.5831698e-08
2.6038599 -1.20169 -5.25269e-08
2.6138401 -1.2033 -5.2597201e-08
2.3020699 -1.53708 -6.7187102e-08
2.5717299 -1.23101 -5.38089e-08
2.32423 -1.4137 -6.1794303e-08
2.3319199 -1.43995 -6.2941503e-08
2.60993 -1.2056 -5.26978e-08
2.4321201 -1.41266 -6.17488e-08
2.41641 -1.37269 -6.0001497e-08
2.5100801 -1.28074 -5.59826e-08
2.4205201 -1.237 -5.40706e-08
2.3689599 -1.41796 -6.1980302e-08
2.44467 -1.13711 -4.9704301e-08
2.6784799 -1.13555 -4.9635901e-08
2.4216299 -1.14647 -5.01133e-08
2.5678699 -1.17426 -5.1328101e-08
2.44943 -1.35111 -5.9058401e-08
2.3439901 -1.522 -6.6528301e-08
2.55477 -1.20654 -5.27391e-08
2.2874401 -1.32019 -5.7706899e-08
2.47035 -1.17935 -5.15507e-08
2.44559 -1.20998 -5.2889501e-08
2.2927201 -1.53228 -6.6977698e-08
2.51108 -1.30323 -5.6965501e-08
2.29919 -1.54057 -6.7339698e-08
2.3496499 -1.4412301 -6.2997401e-08
2.52192 -1.26556 -5.53189e-08
2.36183 -1.19252 -5.21262e-08
2.4295499 -1.24112 -5.4250599e-08
2.3413701 -1.35377 -5.9174699e-08
2.4326 -1.28678 -5.62463e-08
2.53181 -1.13888 -4.9781701e-08
2.40465 -1.23946 -5.4177999e-08
2.36569 -1.45576 -6.3632797e-08
2.50857 -1.28555 -5.6192601e-08
2.3922701 -1.42102 -6.2114403e-08
2.28689 -1.33435 -5.8325799e-08
2.4003699 -1.36048 -5.9467901e-08
2.5394001 -1.24018 -5.4209401e-08
2.45313 -1.17645 -5.1423999e-08
2.2867601 -1.41927 -6.20376e-08
2.4616499 -1.28324 -5.60917e-08
2.41874 -1.2193 -5.3297001e-08
2.2966101 -1.37554 -6.0126297e-08
2.59939 -1.20427 -5.2640001e-08
2.53216 -1.19222 -5.2113101e-08
2.3559999 -1.3393101 -5.85426e-08
2.4888101 -1.16697 -5.1009302e-08
2.5942099 -1.14552 -5.0071701e-08
2.3630199 -1.27747 -5.58396e-08
2.37269 -1.46363 -6.3976898e-08
2.52827 -1.21885 -5.32774e-08
2.5697 -1.17942 -5.1553599e-08
2.5065601 -1.16365 -5.0864401e-08
2.41119 -1.1761301 -5.14096e-08
2.4907401 -1.2445199 -5.4399099e-08
2.3160701 -1.42664 -6.2359803e-08
2.40714 -1.35023 -5.902e-08
2.5013001 -1.19397 -5.2189801e-08
2.38783 -1.25686 -5.49384e-08
2.3852601 -1.43353 -6.2661101e-08
2.60639 -1.16317 -5.0843301e-08
2.4472201 -1.24988 -5.4633599e-08
2.32635 -1.4084899 -6.1566503e-08
2.44787 -1.36492 -5.9662099e-08
2.4136801 -1.33771 -5.84728e-08
2.55094 -1.22549 -5.3567501e-08
2.4997399 -1.15834 -5.0632401e-08
2.35776 -1.41646 -6.1915102e-08
2.3096099 -1.4598 -6.3809303e-08
2.3945401 -1.15036 -5.0283301e-08
2.3722 -1.45116 -6.3431798e-08
2.36408 -1.4638799 -6.3987699e-08
2.6021399 -1.1428 -4.9953201e-08
2.4437301 -1.26772 -5.5413299e-08
2.31388 -1.31696 -5.7565501e-08
2.4553001 -1.18743 -5.19038e-08
2.47421 -1.17071 -5.1172901e-08
2.35464 -1.3566099 -5.9298799e-08
2.42926 -1.42147 -6.2134099e-08
2.35396 -1.44617 -6.3213498e-08
2.3160801 -1.53924 -6.7281697e-08
2.58881 -1.21038 -5.2907001e-08
2.30585 -1.50867 -6.5945301e-08
2.40043 -1.25208 -5.47297e-08
2.4236701 -1.42586 -6.2325903e-08
2.4033999 -1.13603 -4.9657e-08
2.3685601 -1.49512 -6.5353397e-08
2.46664 -1.33455 -5.8334301e-08
2.4560299 -1.16333 -5.0850399e-08
2.44326 -1.17689 -5.1443202e-08
2.5713201 -1.16508 -5.0926602e-08
2.3752401 -1.3964 -6.1038001e-08
2.2906301 -1.4531699 -6.35196e-08
2.46805 -1.1748199 -5.13526e-08
2.46329 -1.1651599 -5.0930201e-08
2.3982301 -1.20613 -5.2721202e-08
2.4428201 -1.15148 -5.0332201e-08
2.4867301 -1.20969 -5.2876899e-08
2.2876599 -1.57065 -6.86547e-08
2.39452 -1.2730401 -5.56457e-08
2.39237 -1.23535 -5.3998399e-08
2.39238 -1.32227 -5.7797799e-08
2.49001 -1.26853 -5.5448801e-08
2.2981801 -1.2836601 -5.611e-08
2.3092999 -1.38643 -6.0602197e-08
2.4067299 -1.36764 -5.9780803e-08
2.32252 -1.4082299 -6.1555099e-08
2.64131 -1.13307 -4.9527699e-08
2.34639 -1.4711 -6.4303102e-08
2.34658 -1.3215899 -5.7768101e-08
2.3092599 -1.47964 -6.4676499e-08
2.3638899 -1.41205 -6.1722297e-08
2.5713301 -1.2302001 -5.37731e-08
2.3378999 -1.31199 -5.7348501e-08
2.41098 -1.1665601 -5.0991499e-08
2.4463601 -1.24466 -5.4405302e-08
2.5705199 -1.1681401 -5.10605e-08
2.5518899 -1.19768 -5.2351801e-08
2.3289299 -1.5398099 -6.7306601e-08
2.38799 -1.16287 -5.0830199e-08
2.42501 -1.28828 -5.63121e-08
2.3122201 -1.63802 -7.15997e-08
2.96415 -1.27443 -5.5706799e-08
2.3885 -1.60953 -7.0353998e-08
2.3043301 -1.72484 -7.5394702e-08
2.97418 -1.99719 -8.7299199e-08
2.9628501 -1.90096 -8.30929e-08
2.5434799 -1.58145 -6.91265e-08
2.8715501 -2.04702 -8.9477098e-08
3.0218799 -1.89281 -8.2736499e-08
2.8815801 -2.0472901 -8.9488999e-08
2.4698801 -1.59167 -6.9573602e-08
2.91309 -1.2018501 -5.2534102e-08
2.29985 -1.74266 -7.61734e-08
2.36168 -2.01296 -8.7988603e-08
2.3459201 -1.8948801 -8.28271e-08
2.3861799 -1.6936899 -7.4032798e-08
2.3817101 -2.1234 -9.2816101e-08
2.4023099 -1.71428 -7.4932899e-08
2.4328001 -1.50804 -6.5917803e-08
2.88065 -1.72429 -7.5370501e-08
2.4418499 -1.60495 -7.0154002e-08
2.73399 -1.17634 -5.14192e-08
2.69924 -1.14375 -4.9994501e-08
2.36555 -1.52214 -6.6534099e-08
2.3483 -1.74283 -7.6180903e-08
2.3301401 -1.96927 -8.6078799e-08
2.99248 -1.8169301 -7.9419898e-08
2.8159599 -1.7544301 -7.6687797e-08
2.29251 -1.85997 -8.1301103e-08
2.5186501 -1.60832 -7.0301198e-08
2.9049201 -1.2091399 -5.2852702e-08
2.4638901 -1.42994 -6.2504299e-08
2.8273201 -1.6841 -7.3613499e-08
2.94414 -1.23871 -5.4145399e-08
2.9576001 -1.93075 -8.4395097e-08
2.8529601 -1.8535399 -8.1020197e-08
2.8935001 -1.84556 -8.0671199e-08
2.3057599 -1.90444 -8.3245098e-08
2.96646 -1.81551 -7.9357903e-08
2.3936 -2.10853 -9.2165998e-08
2.86988 -1.20105 -5.2499299e-08
2.87397 -1.1863199 -5.1855402e-08
2.3185201 -1.89446 -8.2809002e-08
2.9874899 -1.3329999 -5.82666e-08
2.4895799 -1.5878201 -6.9405097e-08
3.0102501 -1.86754 -8.1632102e-08
2.37695 -1.67 -7.2997203e-08
2.45292 -1.61677 -7.0670602e-08
2.46229 -1.67319 -7.3136803e-08
2.8768699 -2.00383 -8.7589399e-08
2.7832999 -1.71929 -7.5151803e-08
2.98912 -2.1219299 -9.2751797e-08
2.4879 -1.53469 -6.7082702e-08
2.8666999 -1.72984 -7.5613002e-08
2.8157799 -1.76191 -7.7015102e-08
2.75383 -1.1568 -5.0565099e-08
2.80211 -1.68654 -7.37205e-08
3.00717 -1.87746 -8.2065597e-08
2.8970001 -1.81402 -7.9292597e-08
2.4800501 -1.55427 -6.79387e-08
2.6691899 -1.17637 -5.14204e-08
2.3533499 -1.59156 -6.9568699e-08
2.2958701 -1.99883 -8.73708e-08
2.43206 -1.49975 -6.5555497e-08
2.4347501 -1.46576 -6.4069901e-08
2.92049 -1.7885 -7.8177202e-08
2.8499899 -2.0915599 -9.1424297e-08
2.3029101 -1.96498 -8.5891102e-08
2.80513 -1.72256 -7.52947e-08
2.40939 -2.0662601 -9.0318103e-08
2.3071201 -1.81822 -7.9476301e-08
2.89802 -1.9006799 -8.3080501e-08
2.90663 -1.93025 -8.4373198e-08
2.83148 -1.8025 -7.8789e-08
2.70895 -1.1619101 -5.0788199e-08
2.83006 -1.67914 -7.3397104e-08
2.7790101 -1.182 -5.1666198e-08
2.95627 -1.79287 -7.8368203e-08
2.92471 -1.9514101 -8.5297998e-08
2.7764299 -1.67779 -7.3337802e-08
2.9463201 -1.24303 -5.4333999e-08
2.87011 -1.93554 -8.4604302e-08
2.35534 -1.70868 -7.4688003e-08
2.3269501 -1.85895 -8.1256601e-08
2.46292 -1.52587 -6.6697098e-08
2.9641099 -1.1822 -5.1675201e-08
3.0177701 -1.9982899 -8.7347303e-08
2.33234 -2.0035901 -8.7579103e-08
2.69682 -1.16587 -5.0961201e-08
2.51419 -1.59585 -6.9755998e-08
2.3823099 -1.56028 -6.8201402e-08
2.8569701 -2.12902 -9.3061601e-08
2.96334 -1.27614 -5.57813e-08
2.34743 -2.03251 -8.8843002e-08
2.3034899 -1.99213 -8.7078e-08
2.6397901 -1.19428 -5.2203202e-08
2.4118299 -1.49713 -6.5440901e-08
3.0225899 -2.0874801 -9.1245802e-08
2.4574399 -1.55704 -6.8059599e-08
2.9433401 -1.84365 -8.0587697e-08
2.8870101 -2.0519099 -8.9691099e-08
2.74034 -1.65157 -7.2191902e-08
2.93696 -1.99313 -8.7121798e-08
2.9393799 -1.21243 -5.2996398e-08
2.97578 -1.99628 -8.72596e-08
2.4537499 -1.51099 -6.6046802e-08
2.9705999 -1.9778399 -8.6453198e-08
2.3957901 -1.49699 -6.5435103e-08
2.3280201 -1.57623 -6.88987e-08
2.2865 -1.70564 -7.4555103e-08
2.3613601 -2.05791 -8.9953197e-08
2.88293 -1.87547 -8.1978797e-08
2.3603699 -1.8075 -7.9007698e-08
2.3503399 -1.58522 -6.9291403e-08
2.3598399 -1.98883 -8.6933703e-08
2.9463 -1.99309 -8.7119801e-08
2.32341 -1.67195 -7.3082603e-08
2.7441101 -1.17759 -5.1473702e-08
2.9725101 -1.16754 -5.1034501e-08
2.35975 -1.86014 -8.13084e-08
2.95208 -1.96213 -8.5766501e-08
2.9648399 -1.29336 -5.6534301e-08
2.3408899 -1.92857 -8.4299799e-08
2.3733499 -1.70733 -7.46289e-08
2.3425901 -1.7479 -7.6402301e-08
2.4398799 -1.61586 -7.0630698e-08
2.9283099 -1.30235 -5.6927e-08
2.93135 -1.87585 -8.1995303e-08
2.9899499 -1.80389 -7.885e-08
2.3970799 -1.56022 -6.8198801e-08
2.8759999 -1.23722 -5.4080001e-08
3.01507 -2.12919 -9.3069197e-08
3.0044501 -2.11888 -9.26184e-08
2.8426399 -1.80375 -7.8843797e-08
2.94328 -1.81265 -7.9232997e-08
2.30494 -2.1293499 -9.3076103e-08
2.41118 -1.71241 -7.4851101e-08
2.3309 -1.71619 -7.5016601e-08
2.8565099 -1.19879 -5.2400299e-08
2.8811901 -2.0036199 -8.7580197e-08
2.91751 -1.20149 -5.2518399e-08
3.0056701 -1.32263 -5.7813299e-08
2.33217 -1.88858 -8.2551601e-08
2.28755 -1.81443 -7.9310603e-08
2.4552701 -1.42142 -6.2131697e-08
2.4693999 -1.3854001 -6.0557198e-08
2.36568 -1.9918801 -8.7067001e-08
2.82833 -1.62907 -7.1208099e-08
2.8736701 -1.7642601 -7.7117498e-08
2.3127401 -1.7867399 -7.8100399e-08
2.8678899 -1.88106 -8.2223202e-08
2.3341701 -1.99833 -8.7348901e-08
2.9035599 -1.952 -8.5323897e-08
2.9728301 -1.98297 -8.6677503e-08
2.3592501 -1.86247 -8.1410199e-08
2.9230499 -2.04249 -8.9279197e-08
2.4036601 -2.0369899 -8.90387e-08
2.3464701 -1.5914201 -6.9562397e-08
2.8015201 -1.63572 -7.1499002e-08
2.8951499 -1.8034101 -7.8828997e-08
2.303 -1.72884 -7.5569503e-08
2.30338 -2.11396 -9.2403397e-08
2.5087099 -1.58356 -6.9219197e-08
2.3593199 -1.94162 -8.4870202e-08
2.7686701 -1.13898 -4.97858e-08
2.4386799 -1.44976 -6.3370599e-08
2.2888501 -1.68064 -7.3462502e-08
2.3668101 -1.62433 -7.1001203e-08
2.78315 -1.67046 -7.3017603e-08
2.4679501 -1.52325 -6.6582899e-08
2.3236599 -2.1192701 -9.2635403e-08
2.33939 -1.5870399 -6.9371197e-08
2.3742099 -2.0574999 -8.9935298e-08
2.8842399 -1.9557101 -8.5486001e-08
2.8462801 -1.66934 -7.2968497e-08
2.3124199 -1.80206 -7.877e-08
2.7848499 -1.6719 -7.3080301e-08
3.0116701 -1.99474 -8.71919e-08
2.43784 -1.5269001 -6.6742302e-08
2.89728 -2.01965 -8.82808e-08
2.4526801 -1.47533 -6.4488198e-08
2.3099401 -1.5661 -6.8456004e-08
3.0071499 -2.07287 -9.0607102e-08
2.4416699 -1.4934601 -6.5280602e-08
2.2971001 -2.11466 -9.2433901e-08
2.9083099 -2.1017301 -9.1868699e-08
2.8963699 -2.0738599 -9.0650403e-08
2.3225901 -1.55571 -6.8001498e-08
2.8373201 -1.85332 -8.1010299e-08
2.8908601 -1.9451801 -8.5025903e-08
2.4389701 -1.6133 -7.0518901e-08
2.5638599 -1.58798 -6.9412103e-08
2.90994 -1.18488 -5.1792298e-08
2.7741301 -1.68478 -7.3643299e-08
2.47878 -1.5183901 -6.6370397e-08
2.30353 -1.65309 -7.2258203e-08
2.37252 -1.54764 -6.7648699e-08
2.9963 -1.96547 -8.5912603e-08
2.32582 -1.69103 -7.3916802e-08
2.2912099 -2.02667 -8.8587697e-08
2.3599701 -1.65104 -7.2168604e-08
2.4205501 -1.5772901 -6.89448e-08
2.63219 -1.6361099 -7.1516197e-08
2.3239999 -1.5763299 -6.89028e-08
2.48294 -1.4651901 -6.4044798e-08
3.03073 -2.0407901 -8.9205002e-08
2.8524699 -1.21227 -5.2989702e-08
2.9754601 -1.79819 -7.8600799e-08
2.5448 -1.60343 -7.0087502e-08
2.3627 -1.72335 -7.5329197e-08
2.32726 -2.03813 -8.9088502e-08
2.3738699 -1.5560499 -6.8016497e-08
2.3652501 -1.93311 -8.4498197e-08
2.89065 -2.09936 -9.1765003e-08
2.3008201 -2.09273 -9.14754e-08
2.9577799 -1.27021 -5.5521902e-08
2.3749101 -1.62694 -7.1115302e-08
3.02968 -2.05022 -8.9617203e-08
2.7502301 -1.69006 -7.3873998e-08
3.0037899 -2.0701799 -9.0489799e-08
2.9877701 -1.30427 -5.7011e-08
2.9487801 -1.27672 -5.5806701e-08
2.3776901 -2.1031599 -9.1931298e-08
2.9026999 -1.79871 -7.86236e-08
2.93115 -2.02508 -8.8518298e-08
2.4630001 -1.61707 -7.0683903e-08
2.95699 -1.79372 -7.8405201e-08
2.2980001 -1.73901 -7.6013698e-08
2.9648499 -1.3286099 -5.8075099e-08
2.3585899 -1.86132 -8.1360099e-08
2.44366 -2.0938301 -9.1523397e-08
2.3921299 -1.50246 -6.5674101e-08
2.3011501 -1.83856 -8.0365197e-08
2.9953499 -1.23708 -5.4073801e-08
2.90522 -1.18088 -5.1617299e-08
2.6052101 -1.62857 -7.1186598e-08
2.8141601 -1.66311 -7.2696402e-08
2.35762 -1.60144 -7.0000503e-08
2.38836 -2.0624299 -9.0150799e-08
2.5111799 -1.51975 -6.6429998e-08
2.3784399 -1.96491 -8.5888402e-08
2.90135 -1.93425 -8.4547899e-08
2.37851 -2.0123899 -8.7963599e-08
2.8102901 -1.65633 -7.23997e-08
2.9398999 -1.30952 -5.7240399e-08
2.9122601 -1.78297 -7.7935503e-08
2.91535 -1.86753 -8.1631597e-08
2.9066701 -1.24253 -5.4312299e-08
2.38902 -1.66486 -7.2772899e-08
2.98123 -2.1288199 -9.3052897e-08
2.3778901 -1.70619 -7.4579098e-08
2.3008399 -1.96536 -8.5907899e-08
2.9744 -1.21351 -5.3043902e-08
2.3666501 -1.80311 -7.8815901e-08
3.00739 -2.003 -8.7553097e-08
2.8229101 -1.15231 -5.0368701e-08
2.41717 -1.6678801 -7.2904797e-08
2.4509499 -1.6391701 -7.16499e-08
2.9312201 -1.3010401 -5.6869801e-08
3.02703 -2.0346601 -8.8937199e-08
2.91085 -2.0234201 -8.8445503e-08
2.3158801 -1.73939 -7.6030503e-08
2.97879 -2.1129701 -9.2359997e-08
2.9899499 -2.0985701 -9.1730399e-08
2.4712801 -1.38802 -6.0671503e-08
2.38361 -1.51714 -6.63156e-08
2.9813399 -1.79784 -7.8585202e-08
2.32792 -1.69954 -7.4288401e-08
2.9983001 -1.9312299 -8.44162e-08
2.35238 -2.0195501 -8.8276799e-08
2.9042001 -1.93036 -8.4378001e-08
2.3110399 -1.58255 -6.9174902e-08
2.29458 -1.67472 -7.32038e-08
2.8257799 -1.14334 -4.99764e-08
2.8547299 -1.8539701 -8.1038998e-08
2.8682699 -1.72747 -7.5509298e-08
2.9034901 -2.0197501 -8.8285098e-08
2.94804 -1.89414 -8.2794898e-08
2.4176099 -1.49635 -6.54071e-08
2.4024601 -2.12414 -9.2848303e-08
2.43279 -1.66475 -7.2768003e-08
2.88782 -1.99638 -8.72638e-08
2.3441701 -1.59289 -6.9626701e-08
2.7351601 -1.67457 -7.3197199e-08
2.92611 -1.25718 -5.49528e-08
2.3840599 -1.5619 -6.8272399e-08
3.01491 -2.07634 -9.0758803e-08
2.3269801 -1.84385 -8.05966e-08
2.32708 -1.63168 -7.1322397e-08
2.83884 -1.82856 -7.99281e-08
2.89168 -2.0867701 -9.1214801e-08
2.3544199 -2.0204599 -8.8316099e-08
2.8218701 -1.72334 -7.5329098e-08
2.4792399 -1.40922 -6.15983e-08
2.44611 -1.62977 -7.1238802e-08
2.89346 -1.2175699 -5.3221399e-08
2.49857 -1.51129 -6.6059897e-08
2.9672401 -1.20969 -5.28767e-08
2.4118199 -1.49224 -6.5227297e-08
3.0006499 -1.2484601 -5.4571299e-08
2.9750199 -1.18232 -5.16802e-08
2.9223299 -1.24792 -5.4547801e-08
2.3128901 -1.83241 -8.0096299e-08
2.9375999 -2.09163 -9.1427196e-08
2.4000001 -1.73467 -7.5824097e-08
2.8615601 -2.11286 -9.23554e-08
2.8817699 -1.19918 -5.2417601e-08
2.31111 -1.5795799 -6.90451e-08
2.8870499 -1.82081 -7.9589398e-08
2.9467001 -2.0624499 -9.0151801e-08
2.37257 -1.61687 -7.06751e-08
2.3201799 -1.77516 -7.7594201e-08
2.73948 -1.6742001 -7.3181099e-08
2.3898499 -1.51428 -6.6190601e-08
2.29671 -2.1238301 -9.2834597e-08
2.3508101 -1.9585 -8.5608001e-08
2.8638599 -1.16347 -5.0856201e-08
2.9200001 -1.9521199 -8.5329098e-08
2.34671 -1.93813 -8.4717698e-08
2.83901 -1.86207 -8.1392898e-08
2.30651 -1.6307499 -7.1281498e-08
2.45717 -1.65535 -7.2357103e-08
2.32726 -1.91855 -8.38616e-08
2.9579999 -1.81438 -7.93083e-08
2.28774 -1.8175499 -7.9446998e-08
2.3361499 -1.89131 -8.26712e-08
2.46332 -1.4695801 -6.42369e-08
2.9075501 -1.21127 -5.2946e-08
2.43576 -1.5563101 -6.8027802e-08
2.90764 -2.07815 -9.08381e-08
2.90295 -1.81893 -7.9507302e-08
2.9330499 -1.97612 -8.6378101e-08
2.3050399 -1.83653 -8.0276401e-08
2.30141 -1.6946 -7.4072901e-08
2.3861301 -1.97063 -8.6138101e-08
2.3977399 -1.72062 -7.5210203e-08
3.02456 -2.12238 -9.2771302e-08
2.5493701 -1.6190701 -7.07712e-08
2.8861301 -1.202 -5.25404e-08
2.3371601 -1.87984 -8.2169599e-08
2.3280301 -1.7681 -7.7285598e-08
2.8838999 -1.92393 -8.4097003e-08
2.3048601 -2.1031499 -9.19309e-08
2.40488 -1.54021 -6.7324102e-08
2.9429901 -1.85193 -8.0949803e-08
2.9019599 -1.2155499 -5.3132901e-08
2.4299099 -1.43818 -6.2864501e-08
2.9127901 -1.1804301 -5.1597699e-08
2.3042901 -1.63735 -7.157e-08
2.4337399 -1.45391 -6.3551902e-08
2.9463401 -1.85827 -8.1226801e-08
2.29146 -1.6150301 -7.0594602e-08
2.7518001 -1.17507 -5.1363301e-08
2.45169 -1.60282 -7.00608e-08
2.3585801 -1.72913 -7.5581802e-08
2.4175501 -1.63604 -7.1513099e-08
2.3810699 -1.9687901 -8.6058002e-08
2.3134 -1.93911 -8.47606e-08
2.92487 -1.77859 -7.7744097e-08
2.3199301 -1.60594 -7.0197302e-08
2.9434199 -1.81472 -7.93232e-08
2.3603401 -2.08358 -9.1075499e-08
2.4159601 -1.57707 -6.8935499e-08
2.4335799 -1.48244 -6.4798897e-08
2.38129 -1.61517 -7.0600699e-08
2.2862799 -1.68427 -7.3621102e-08
2.40558 -1.56876 -6.8572e-08
2.9200699 -1.22429 -5.3515102e-08
2.9298699 -1.78292 -7.7933102e-08
2.7490101 -1.66511 -7.2783699e-08
2.8210399 -1.71224 -7.4843598e-08
2.45838 -1.46369 -6.39793e-08
2.33323 -1.6163501 -7.0652199e-08
2.84864 -1.74782 -7.6398997e-08
2.45625 -1.58364 -6.9222502e-08
2.46383 -1.50762 -6.5899599e-08
2.4064701 -1.56116 -6.8239999e-08
2.9252601 -1.2087801 -5.2837098e-08
2.8799701 -2.1227901 -9.2789101e-08
2.95648 -1.9809999 -8.6591399e-08
2.8471301 -1.17747 -5.1468501e-08
2.3623199 -1.9681 -8.6027498e-08
2.41382 -1.47286 -6.4380004e-08
2.9946899 -1.8425601 -8.0540197e-08
2.72858 -1.16447 -5.0899999e-08
2.49879 -1.53605 -6.7142302e-08
2.29652 -2.0146101 -8.8060403e-08
2.3129699 -1.6165299 -7.0660001e-08
2.3834801 -1.626 -7.1074098e-08
2.9656701 -1.85244 -8.0972001e-08
2.9168301 -1.84887 -8.08162e-08
2.9957299 -1.21674 -5.3185001e-08
2.7888401 -1.65373 -7.2286397e-08
2.99261 -1.98783 -8.6889898e-08
2.3852899 -1.68765 -7.3769101e-08
2.9605 -1.24376 -5.4365799e-08
2.7400501 -1.67442 -7.3190499e-08
2.3296101 -1.76096 -7.6973301e-08
2.5048599 -1.55151 -6.7818199e-08
2.9579699 -1.2326699 -5.3881202e-08
2.4419999 -1.44848 -6.3314303e-08
2.3580101 -2.0204201 -8.8314501e-08
2.48103 -1.3802 -6.0329697e-08
2.85903 -1.72123 -7.5236599e-08
3.01933 -1.9313999 -8.4423498e-08
2.46368 -1.44485 -6.3155902e-08
2.2902901 -1.68435 -7.3624598e-08
3.02637 -2.0123999 -8.7963897e-08
2.9507101 -2.0474801 -8.9497199e-08
2.37762 -1.7158099 -7.4999903e-08
2.4347799 -1.63473 -7.1455801e-08
2.3071599 -1.8305 -8.0013102e-08
2.86869 -1.94768 -8.5134999e-08
2.85414 -1.80629 -7.8954798e-08
2.3831501 -2.0190799 -8.8255902e-08
2.9554701 -1.25161 -5.4709002e-08
2.9148901 -1.79643 -7.8524003e-08
2.34569 -1.97014 -8.61166e-08
2.41748 -1.50271 -6.5685001e-08
2.5592599 -1.61755 -7.0704701e-08
2.3668699 -1.82865 -7.99321e-08
2.29882 -1.76017 -7.6938797e-08
2.8785901 -1.2317899 -5.3842701e-08
2.8672299 -1.1748199 -5.13527e-08
2.4140601 -1.68955 -7.3852e-08
2.4233601 -1.47346 -6.4406301e-08
2.3055799 -1.6791101 -7.3395398e-08
3.00172 -2.04704 -8.9478299e-08
2.41342 -1.64131 -7.1743202e-08
2.9258599 -2.0571001 -8.9918103e-08
2.9235401 -1.85781 -8.12068e-08
2.9992399 -2.0232601 -8.8438597e-08
2.3529301 -1.52131 -6.6498103e-08
2.99701 -1.91984 -8.3918302e-08
2.8622799 -1.87212 -8.1832198e-08
2.8309 -1.15413 -5.04483e-08
2.54743 -1.62692 -7.11144e-08
2.7660501 -1.17873 -5.1523401e-08
2.95649 -1.9715199 -8.6177003e-08
2.3711801 -1.5624501 -6.8296302e-08
2.90836 -2.02509 -8.8518803e-08
2.44383 -1.4293801 -6.2479401e-08
2.9830599 -1.96716 -8.5986301e-08
2.4834001 -1.3787301 -6.0265798e-08
3.01631 -1.9715101 -8.6176499e-08
3.01249 -2.04088 -8.9209003e-08
2.3800199 -1.74981 -7.6486103e-08
2.87782 -1.78995 -7.8240603e-08
2.3757601 -2.0487399 -8.9552501e-08
2.96892 -2.0892701 -9.1324203e-08
3.0327899 -2.0846 -9.112e-08
2.3241 -2.00315 -8.7559499e-08
2.4437301 -1.6596 -7.2542797e-08
3.0097401 -2.04462 -8.93722e-08
2.78304 -1.1411901 -4.9882299e-08
2.9332099 -1.95353 -8.5390802e-08
2.86397 -1.21839 -5.3257001e-08
2.9175301 -1.86076 -8.1335699e-08
2.94959 -1.84474 -8.0635203e-08
2.2952199 -1.6919399 -7.3956201e-08
2.9399099 -1.29295 -5.6516299e-08
2.2878399 -1.6318901 -7.1331698e-08
2.96245 -1.95769 -8.5572701e-08
2.99997 -1.28703 -5.6257502e-08
2.8977699 -1.90066 -8.3079797e-08
2.94824 -1.92167 -8.3998202e-08
2.3601699 -1.78539 -7.8040998e-08
2.45296 -1.48348 -6.4844201e-08
2.43138 -1.50634 -6.58437e-08
2.92979 -1.19382 -5.2182902e-08
2.9756701 -1.91778 -8.3828098e-08
2.3173001 -1.98701 -8.68542e-08
2.2908499 -1.9718601 -8.6191903e-08
2.3659 -1.88296 -8.2306201e-08
2.9267399 -1.91083 -8.3524199e-08
3.0101299 -1.86344 -8.1453003e-08
2.93946 -1.79238 -7.8346901e-08
2.33583 -1.81736 -7.94386e-08
2.7460101 -1.68129 -7.3490803e-08
3.00581 -2.03653 -8.9018698e-08
2.3545301 -1.74368 -7.62181e-08
2.88767 -1.97887 -8.6498403e-08
2.3695199 -1.59176 -6.9577297e-08
3.0257599 -2.1170599 -9.2538897e-08
2.8803401 -1.86154 -8.1369997e-08
3.02442 -1.98794 -8.68949e-08
2.8898301 -1.88378 -8.23417e-08
2.9273801 -2.0213399 -8.8354803e-08
2.3831201 -2.05129 -8.9664098e-08
2.89781 -2.0640099 -9.0220098e-08
2.73035 -1.14849 -5.02015e-08
2.3397601 -1.98931 -8.6954699e-08
2.84658 -1.78263 -7.7920703e-08
2.84499 -1.83514 -8.0215997e-08
2.2871101 -1.69968 -7.4294803e-08
2.3105099 -1.60413 -7.0118098e-08
2.9976399 -1.82208 -7.9645098e-08
2.4268701 -2.11042 -9.2248698e-08
2.3229301 -1.88809 -8.2530399e-08
2.8537199 -1.8513401 -8.0923797e-08
2.33231 -1.88844 -8.2545803e-08
2.3613801 -2.10445 -9.1987502e-08
2.6800101 -1.17393 -5.1313599e-08
2.8205199 -1.63581 -7.1503003e-08
2.4635401 -1.39643 -6.10396e-08
2.86656 -1.19005 -5.2018301e-08
2.88009 -1.7218 -7.5261603e-08
2.45769 -1.44722 -6.32593e-08
2.4554999 -1.6282001 -7.1170099e-08
2.87412 -1.7191 -7.5143703e-08
2.9663899 -2.0418899 -8.9253e-08
2.95595 -1.93519 -8.4588898e-08
2.9965 -1.96753 -8.60028e-08
2.9263599 -1.25475 -5.48463e-08
2.4823999 -1.49332 -6.5274598e-08
2.48983 -1.6572 -7.2437899e-08
2.40183 -1.51327 -6.6146598e-08
2.3759 -1.603 -7.0068502e-08
2.5002999 -1.61441 -7.0567701e-08
3.0044999 -2.0186801 -8.82386e-08
2.3222599 -2.1224501 -9.27743e-08
2.8740599 -2.0292399 -8.8699899e-08
3.0202401 -1.98959 -8.69668e-08
2.3253901 -1.85515 -8.1090299e-08
2.9223399 -1.20593 -5.2712402e-08
2.9116499 -1.99519 -8.7211703e-08
2.90272 -1.9880199 -8.6898403e-08
2.3405299 -1.68562 -7.3679999e-08
2.89184 -1.83093 -8.0031597e-08
2.42889 -1.43336 -6.2653498e-08
2.3097501 -1.5862499 -6.93367e-08
2.9072499 -2.09442 -9.1549197e-08
2.29302 -1.8143899 -7.9308897e-08
2.7643299 -1.65309 -7.2257997e-08
3.0218401 -1.96082 -8.5709303e-08
2.9916501 -1.25805 -5.4990402e-08
3.0248301 -1.93554 -8.4604402e-08
2.9375801 -1.3077 -5.71609e-08
2.86571 -1.92224 -8.4022901e-08
2.8506899 -1.2029999 -5.2584099e-08
2.7920301 -1.16608 -5.0970499e-08
2.9058101 -1.75544 -7.67321e-08
2.3465199 -1.82604 -7.9818001e-08
2.3138001 -1.91325 -8.3630198e-08
2.3504701 -1.87485 -8.1951498e-08
2.97138 -1.24904 -5.4596999e-08
2.9713199 -2.02759 -8.8627999e-08
2.8573201 -1.86142 -8.1364398e-08
3.0071001 -1.32584 -5.7953802e-08
2.89886 -1.2500401 -5.4640399e-08
2.43732 -1.67949 -7.3412103e-08
2.8440499 -1.88606 -8.2441801e-08
2.34846 -1.7496099 -7.6477299e-08
2.8697901 -1.81409 -7.9295802e-08
3.0079999 -1.30231 -5.6925099e-08
2.44822 -1.5384901 -6.7249097e-08
2.4335499 -1.57455 -6.88254e-08
2.95031 -1.25133 -5.46971e-08
2.99931 -2.0206001 -8.8322501e-08
2.3864601 -1.57919 -6.9027799e-08
2.35515 -2.09287 -9.1481603e-08
3.0048599 -1.21538 -5.3125699e-08
2.29179 -1.6986001 -7.4247403e-08
2.32816 -2.0530901 -8.9742798e-08
2.45154 -1.41081 -6.1667798e-08
2.36344 -1.5984499 -6.9869998e-08
2.39376 -2.02549 -8.8536403e-08
2.8648 -2.09428 -9.15431e-08
2.8203499 -1.69524 -7.4100399e-08
2.32866 -1.89016 -8.2621e-08
2.3032899 -1.94452 -8.4996898e-08
2.4360099 -1.60853 -7.0310399e-08
2.99527 -1.2433 -5.4345801e-08
2.35025 -1.83416 -8.0172903e-08
2.3877101 -1.66905 -7.29558e-08
3.00351 -1.25258 -5.47514e-08
2.36536 -2.0726099 -9.0595798e-08
2.35671 -1.7334501 -7.57707e-08
3.01811 -1.85007 -8.0868602e-08
2.93788 -1.94472 -8.5005702e-08
2.9330101 -1.78734 -7.8126597e-08
2.8966801 -1.2551 -5.4861498e-08
2.4158599 -1.45491 -6.35956e-08
2.4581499 -1.5403301 -6.7329502e-08
2.86836 -2.06022 -9.0054101e-08
2.36465 -1.52279 -6.6562599e-08
2.3434999 -2.0164499 -8.8140901e-08
2.9462199 -1.20543 -5.2690702e-08
3.0139999 -2.1172199 -9.2545797e-08
2.95192 -1.95171 -8.53111e-08
2.95437 -1.88876 -8.2559602e-08
2.8835101 -1.85628 -8.1139902e-08
3.00489 -1.85479 -8.1074703e-08
2.3029799 -1.67299 -7.3128199e-08
2.9579999 -2.0539999 -8.9782198e-08
2.92819 -2.0794301 -9.0893998e-08
2.8065 -1.6871001 -7.3744999e-08
2.6828799 -1.16528 -5.09357e-08
2.98101 -2.0922799 -9.1455703e-08
2.3654201 -1.88118 -8.2228397e-08
3.0058899 -2.05651 -8.9892097e-08
