# .PCD v0.7 - Point Cloud Data file format
VERSION 0.7
FIELDS x y z
SIZE 4 4 4
TYPE F F F
COUNT 1 1 1
WIDTH 1674
HEIGHT 1
VIEWPOINT 0 0 0 1 0 0 0
POINTS 1674
DATA ascii
4.15135 -1.39867 3.06218
4.0426502 -1.931 3.06218
4.0474601 -1.9633 3.06218
4.0499902 -1.44437 3.0999999
4.00248 -2.0671999 3.06218
3.9886501 -1.52122 3.06218
3.9665401 -2.1094699 3.0664401
4.2077398 -1.87308 3.06218
3.97527 -1.9645 3.06218
3.9665401 -1.76386 3.0876801
3.9665401 -1.75679 3.07199
4.1034098 -1.75802 3.06218
4.0918498 -1.35607 3.0999999
3.96926 -1.68133 3.0999999
4.0423002 -1.51429 3.0999999
4.08183 -1.79511 3.06218
4.1846099 -1.4043601 3.06218
4.0865102 -1.94564 3.0999999
4.1190901 -2.05688 3.0999999
4.1455202 -1.59419 3.0999999
4.1006098 -1.9946001 3.06218
4.1846099 -1.4043601 3.06218
3.9807999 -2.06952 3.06218
4.1740899 -1.97948 3.06218
4.0946498 -1.7374001 3.0999999
4.1146798 -1.49911 3.06218
4.1483898 -1.41286 3.06218
4.26158 -2.0316601 3.0999999
4.10711 -1.49541 3.0999999
3.99562 -1.87743 3.06218
4.0731702 -1.65911 3.0999999
4.16886 -1.8242 3.06218
4.0552702 -1.91237 3.0999999
3.9665401 -2.12185 3.07885
4.10957 -1.5342 3.0999999
4.1895099 -1.35531 3.06218
4.0242801 -1.38908 3.06218
3.9665401 -1.42759 3.0858099
4.0405102 -1.61664 3.06218
4.0461998 -1.48548 3.0999999
4.0591002 -1.8516901 3.06218
4.2417102 -1.39688 3.0999999
3.9895999 -1.78738 3.0999999
4.17062 -1.89328 3.0999999
4.0468402 -1.82951 3.0999999
4.0562301 -1.99955 3.0999999
4.2207899 -2.04529 3.0999999
3.9793601 -1.75164 3.0999999
4.02562 -1.78759 3.06218
4.0468402 -1.82951 3.0999999
4.2641401 -2.0581901 3.06218
4.0012102 -2.06916 3.06218
4.02984 -1.49224 3.06218
4.22715 -1.48739 3.0999999
4.1073799 -1.4664201 3.0999999
4.1100798 -2.04087 3.06218
4.1071801 -1.5934 3.06218
4.2362199 -2.0862 3.0999999
4.09271 -2.0436001 3.06218
4.13798 -1.9046 3.0999999
4.00385 -1.49523 3.06218
4.0576801 -1.7038701 3.0999999
4.08741 -1.94217 3.06218
4.1163201 -1.8718899 3.06218
4.11795 -1.8673 3.06218
4.1050801 -2.0279 3.06218
4.0149498 -1.36958 3.06218
4.21876 -2.06094 3.06218
3.97364 -1.9132 3.06218
4.1128001 -1.90468 3.06218
4.0248499 -1.72316 3.0999999
4.0823002 -1.35488 3.06218
4.2279601 -1.98763 3.0999999
4.1979599 -1.8777601 3.0999999
4.1694999 -1.91987 3.0999999
4.0657001 -1.8501101 3.06218
4.1756902 -2.0599599 3.0999999
3.9665401 -1.7668 3.09271
4.0878901 -1.7871701 3.06218
4.0113401 -1.6194 3.0999999
4.0844798 -1.36832 3.0999999
4.22474 -1.86713 3.06218
4.17171 -1.88493 3.0999999
4.11235 -1.49922 3.06218
4.0946498 -1.7374001 3.0999999
4.0163798 -2.08728 3.0999999
4.04877 -1.56365 3.06218
3.9665401 -2.1235299 3.07812
4.0334301 -2.0379901 3.0999999
4.1788502 -2.0244 3.0999999
4.0945702 -1.51503 3.0999999
4.0946598 -1.6918499 3.06218
4.2435198 -2.05108 3.0999999
3.9665401 -1.8779 3.0669301
4.0187402 -2.08145 3.0999999
4.1649299 -1.77991 3.0999999
3.9908299 -1.9514199 3.06218
4.0222998 -2.0078399 3.0999999
4.08109 -2.0545001 3.0999999
4.1106601 -1.93214 3.0999999
4.1265502 -1.51316 3.0999999
4.09589 -1.94467 3.06218
4.1630402 -1.5608701 3.0999999
4.0973501 -2.0734301 3.06218
4.0667801 -1.41766 3.06218
4.2179999 -1.84991 3.0999999
4.0651999 -1.66255 3.06218
3.9665401 -1.47402 3.09338
4.0348101 -1.4915 3.0999999
4.26789 -2.10274 3.06218
4.0511198 -1.9795099 3.06218
4.1127901 -1.3766 3.06218
4.1108198 -1.75365 3.06218
4.03652 -2.1249599 3.0999999
4.0897198 -1.90706 3.0999999
3.98684 -1.3811001 3.06218
4.0060201 -1.87351 3.06218
4.1115999 -1.683 3.0999999
4.0321898 -1.9181 3.06218
4.2156601 -1.33207 3.0999999
4.2484298 -2.0452499 3.0999999
3.9946599 -1.9945199 3.0999999
4.15978 -2.0036199 3.06218
3.97858 -2.0613501 3.06218
4.0823798 -1.88015 3.06218
4.1459398 -1.79626 3.0999999
4.0260201 -1.5478801 3.0999999
4.1522298 -1.5512201 3.06218
3.9665401 -2.08074 3.0640199
3.9665401 -1.49461 3.07985
4.1601801 -2.0663099 3.0999999
4.1128001 -1.90468 3.06218
4.0303602 -1.51069 3.06218
3.9886501 -1.52122 3.06218
3.9665401 -1.4431 3.0680301
4.0591202 -2.0432799 3.06218
4.0091701 -1.58226 3.0999999
3.9665401 -1.78681 3.07635
4.16886 -1.8242 3.06218
4.16717 -1.41729 3.0999999
4.0446601 -2.0306001 3.0999999
3.9665401 -1.71395 3.0706601
3.9665401 -1.4 3.0703299
4.1409502 -2.0634501 3.06218
3.9885499 -1.72435 3.0999999
4.1768198 -1.95891 3.0999999
4.1656899 -1.87458 3.0999999
3.99316 -2.0371301 3.0999999
3.9665401 -1.77036 3.08865
3.9844201 -1.5953701 3.0999999
4.2469501 -1.4141999 3.06218
4.0884099 -1.59645 3.0999999
4.2332101 -1.4247 3.06218
4.1075501 -1.64723 3.0999999
4.1468601 -1.44091 3.0999999
4.1083899 -1.81892 3.06218
4.16717 -1.41729 3.0999999
4.20998 -1.86778 3.0999999
4.1263099 -1.43399 3.0999999
4.17273 -1.84413 3.06218
4.2810998 -2.0819199 3.06218
4.0931301 -2.0004101 3.0999999
3.9665401 -1.49841 3.0643401
4.1088099 -1.64315 3.06218
3.9665401 -1.35194 3.07126
3.9687099 -2.04335 3.0999999
4.0100899 -1.7505 3.0999999
4.14252 -1.47753 3.06218
3.9886501 -1.52122 3.06218
4.0903502 -1.69381 3.06218
4.0904999 -1.92883 3.06218
4.0382199 -2.01526 3.06218
4.0585999 -1.80477 3.0999999
4.1287699 -1.53233 3.06218
4.1676202 -1.38436 3.0999999
4.00207 -2.11288 3.0999999
4.1303301 -1.58768 3.0999999
4.0908399 -1.56394 3.0999999
4.1407099 -1.52604 3.0999999
4.0756402 -1.61761 3.0999999
4.0527 -1.6171499 3.0999999
4.1977 -1.85923 3.0999999
4.1240401 -2.01543 3.0999999
4.06426 -1.38605 3.0999999
4.10957 -1.5342 3.0999999
4.1482201 -1.78274 3.06218
4.19835 -2.06178 3.0999999
3.9946499 -1.97381 3.06218
4.0510802 -1.6684099 3.06218
4.1791201 -1.81969 3.0999999
4.0834198 -1.4358799 3.06218
4.1056199 -1.50877 3.06218
3.9665401 -2.1279299 3.0813601
4.1932201 -1.9624799 3.0999999
4.1454701 -1.61133 3.0999999
4.1311202 -1.96137 3.06218
4.1276898 -1.46638 3.06218
4.1963701 -1.45813 3.06218
4.1742601 -1.88729 3.06218
4.09589 -1.94467 3.06218
4.27986 -1.99138 3.0999999
4.15136 -1.34043 3.06218
3.99208 -1.52087 3.0999999
4.0139298 -1.4124399 3.06218
4.2022099 -1.918 3.06218
3.97383 -1.80092 3.06218
4.0672898 -1.8571301 3.06218
4.1034098 -1.75802 3.06218
4.1061101 -1.3822 3.0999999
4.0013399 -1.8283499 3.06218
4.1632099 -1.99324 3.06218
4.00208 -1.97575 3.0999999
4.0236602 -1.91302 3.0999999
4.0391402 -1.73707 3.06218
4.1784601 -1.9618 3.0999999
4.2097602 -1.36949 3.0999999
3.9896801 -1.6723599 3.0999999
4.0066299 -1.7796201 3.0999999
4.0343299 -1.8541501 3.06218
4.1600399 -1.80118 3.06218
4.1072302 -1.59035 3.0999999
4.0360599 -1.35765 3.06218
3.9763501 -1.60505 3.06218
4.1528502 -1.97475 3.06218
4.1243 -2.0493 3.0999999
4.1638198 -1.5810601 3.0999999
4.0853601 -2.0861101 3.0999999
4.12781 -1.483 3.06218
4.0890298 -1.36798 3.06218
4.0553298 -1.43118 3.0999999
4.01544 -1.93951 3.0999999
4.16995 -1.8037699 3.0999999
4.23035 -1.96733 3.06218
4.0760198 -2.0852499 3.06218
4.03725 -1.93943 3.06218
4.0159898 -1.70095 3.0999999
3.9983699 -1.90492 3.06218
4.0931301 -2.0004101 3.0999999
4.1679301 -2.07177 3.0999999
4.1837001 -1.97346 3.06218
4.2272301 -1.40759 3.06218
4.0308599 -1.55093 3.0999999
4.1240401 -2.01543 3.0999999
4.27701 -1.40741 3.0999999
4.2260299 -1.83211 3.06218
4.2516198 -1.87881 3.0999999
4.1175098 -1.63073 3.06218
4.0839901 -2.06515 3.06218
4.0297198 -1.4850301 3.06218
4.0015802 -1.43056 3.06218
4.0297198 -1.4850301 3.06218
4.0086098 -1.60694 3.0999999
4.0303602 -1.51069 3.06218
4.0774202 -1.65834 3.0999999
4.2548099 -1.4146 3.0999999
4.2449098 -2.0127001 3.06218
4.1957302 -1.9536 3.06218
4.0774202 -1.65834 3.0999999
4.0918498 -1.35607 3.0999999
4.0467401 -1.4266599 3.06218
4.0591002 -1.8516901 3.06218
4.0075202 -1.4897 3.0999999
4.0707002 -1.78765 3.06218
4.02879 -1.66031 3.0999999
4.2330899 -1.9478199 3.06218
4.0422502 -1.72641 3.06218
3.9665401 -2.01401 3.08621
4.09337 -1.4380701 3.06218
4.1468701 -1.36739 3.06218
4.1925702 -1.86206 3.06218
4.08742 -1.91869 3.0999999
4.0690198 -1.3881201 3.0999999
4.2096701 -1.37359 3.0999999
3.9665401 -1.7616 3.0824599
3.98282 -1.53386 3.0999999
4.06811 -2.0302801 3.0999999
4.0931802 -1.3857599 3.06218
4.1542401 -1.96065 3.06218
3.9704499 -2.0899899 3.06218
4.2350898 -2.0938799 3.0999999
4.1380301 -1.41808 3.06218
4.1792402 -1.8910201 3.06218
3.98173 -1.4299001 3.06218
4.05687 -1.87731 3.06218
3.9784701 -1.8803999 3.06218
4.1163201 -1.8718899 3.06218
4.0446601 -1.8555599 3.06218
4.0334802 -2.0492599 3.0999999
4.0722799 -2.0501699 3.0999999
4.11729 -1.53957 3.0999999
4.1292601 -2.0130701 3.06218
4.0709801 -2.01424 3.0999999
4.2516198 -1.87881 3.0999999
4.0942302 -1.35805 3.0999999
4.2374601 -1.92924 3.0999999
4.2133498 -1.37787 3.0999999
4.0545101 -1.43671 3.0999999
4.0167499 -2.0169599 3.0999999
4.0244999 -1.4141099 3.0999999
4.03652 -2.1249599 3.0999999
4.0155802 -1.7996 3.06218
4.2708001 -1.8681901 3.06218
4.0124302 -1.8438801 3.06218
3.9851401 -1.5256701 3.0999999
4.0448298 -1.64094 3.0999999
4.2128901 -1.89855 3.06218
4.03304 -1.7876199 3.0999999
4.14151 -1.8063 3.0999999
4.0947599 -1.47461 3.0999999
4.0747399 -1.85167 3.06218
3.9986501 -1.89083 3.0999999
3.9665401 -1.65341 3.06639
4.22474 -1.86713 3.06218
4.1061101 -1.3822 3.0999999
3.9823201 -1.85794 3.06218
4.0075202 -1.4897 3.0999999
4.1728001 -1.45363 3.0999999
3.9665401 -1.96257 3.0958099
4.1199198 -2.0534699 3.06218
3.9665401 -1.66514 3.0683601
4.1841302 -1.83101 3.06218
4.1399202 -1.9616801 3.0999999
4.1679301 -2.07177 3.0999999
4.1828699 -1.86648 3.0999999
4.0246701 -1.64983 3.06218
4.00492 -1.40047 3.0999999
4.1083899 -1.81892 3.06218
4.0797901 -1.84094 3.0999999
3.9874001 -1.6719199 3.0999999
4.1587701 -1.9802901 3.0999999
4.0166702 -1.94191 3.06218
4.1227698 -1.52819 3.06218
3.9811599 -1.60604 3.0999999
4.0321898 -1.9181 3.06218
4.1187801 -1.82487 3.06218
4.2435002 -2.03403 3.06218
3.9665401 -1.98593 3.06617
4.0619998 -1.49719 3.06218
3.9665401 -1.41336 3.0710299
4.0139899 -1.55469 3.0999999
4.2652898 -1.37327 3.06218
4.0100899 -1.7505 3.0999999
4.2810998 -2.0819199 3.06218
4.0722699 -2.05392 3.0999999
4.13797 -1.47049 3.0999999
4.1574001 -1.5782 3.06218
4.1504402 -1.45217 3.06218
4.0367298 -1.4498301 3.0999999
4.0606499 -1.57402 3.0999999
4.1185298 -1.67189 3.0999999
4.0116601 -1.89996 3.06218
4.0379 -2.02425 3.06218
4.0399699 -1.85561 3.06218
4.0917201 -1.98772 3.0999999
4.1308799 -1.94489 3.0999999
4.0536399 -1.8370301 3.0999999
4.1103201 -1.85172 3.0999999
4.18051 -2.03215 3.0999999
4.0131402 -1.54976 3.0999999
4.1049099 -1.51802 3.06218
4.1839199 -1.91081 3.0999999
4.0605001 -1.47808 3.06218
4.0736399 -1.74164 3.06218
4.0411601 -1.77323 3.06218
4.1984801 -2.04688 3.0999999
3.9665401 -1.5309 3.0908599
4.0669899 -1.9905601 3.0999999
4.0446601 -2.0306001 3.0999999
4.0414701 -1.70999 3.0999999
4.0884099 -1.59645 3.0999999
4.0591202 -2.0432799 3.06218
4.2123899 -1.38955 3.0999999
4.0971098 -1.68766 3.06218
3.9755399 -2.0708301 3.06218
4.0918598 -2.0990701 3.06218
3.98684 -1.3811001 3.06218
4.2211699 -2.0843999 3.06218
4.0015802 -1.43056 3.06218
4.1791201 -1.81969 3.0999999
4.0644202 -1.95546 3.0999999
4.1870699 -1.39982 3.0999999
4.2089801 -1.9651901 3.0999999
3.96926 -1.68133 3.0999999
3.9684501 -1.9744999 3.0999999
4.27775 -1.4258 3.0999999
4.0324502 -1.77746 3.0999999
4.0374298 -2.0044701 3.06218
3.9665401 -1.4407901 3.0888901
4.2452898 -1.4238501 3.06218
4.1512499 -1.83619 3.06218
4.0612302 -1.8479 3.06218
4.23247 -1.33848 3.0999999
4.0494099 -1.39203 3.06218
4.0127902 -1.9893 3.06218
4.2548099 -1.4146 3.0999999
4.0590401 -1.99131 3.06218
4.13304 -1.86348 3.06218
3.98224 -1.73932 3.06218
4.1728001 -1.45363 3.0999999
4.0399399 -1.48295 3.0999999
4.0030699 -1.43381 3.0999999
4.0669899 -1.9905601 3.0999999
4.0482202 -1.63248 3.06218
4.1944499 -1.81871 3.0999999
4.0523701 -1.9706 3.06218
4.2567 -1.3796 3.0999999
4.0545101 -1.43671 3.0999999
4.1959701 -1.41853 3.06218
4.2592702 -1.93125 3.0999999
4.1166902 -1.7838 3.0999999
4.2308402 -2.0316601 3.06218
4.0573802 -1.4661601 3.0999999
4.0334802 -2.0492599 3.0999999
3.9774001 -1.64849 3.06218
4.1917901 -1.3441 3.06218
3.9665401 -1.9703799 3.0708001
4.0390201 -1.87481 3.06218
4.0973501 -2.0734301 3.06218
4.08849 -1.38157 3.0999999
4.11408 -2.0727799 3.06218
4.2070198 -1.33836 3.06218
4.0185699 -1.90729 3.06218
4.0083699 -1.56127 3.06218
4.1785202 -1.8821501 3.06218
4.1999502 -1.86273 3.0999999
4.11408 -2.0727799 3.06218
4.0167499 -2.0169599 3.0999999
4.2227402 -1.87187 3.06218
4.10711 -1.49541 3.0999999
3.9876499 -1.6780699 3.06218
3.9665401 -1.58732 3.0668399
4.0187402 -2.08145 3.0999999
4.0283799 -1.95629 3.06218
4.0191102 -1.6340801 3.06218
3.9665401 -1.41336 3.0710299
3.9925001 -1.3756599 3.0999999
4.0893602 -1.53295 3.0999999
4.0912199 -2.10022 3.0999999
4.0722799 -2.0501699 3.0999999
4.0903502 -1.69381 3.06218
4.1897898 -1.48824 3.06218
4.0184798 -2.0704801 3.06218
4.0607901 -2.1182699 3.0999999
4.06429 -1.90356 3.06218
4.09408 -1.46025 3.0999999
4.2449098 -2.0127001 3.06218
4.0150299 -1.60348 3.06218
3.96734 -1.77396 3.0999999
3.97524 -1.93396 3.0999999
4.0229902 -1.42068 3.0999999
4.0740199 -1.81919 3.0999999
4.1787701 -1.51687 3.0999999
4.1556001 -1.5134701 3.0999999
4.0767798 -1.49889 3.06218
4.2726302 -1.83954 3.0999999
4.28128 -1.3861001 3.0999999
3.98224 -1.73932 3.06218
3.9665401 -1.41703 3.07324
4.2467599 -1.45329 3.06218
4.16717 -1.41729 3.0999999
4.2796402 -1.90727 3.0999999
3.9665401 -2.1007299 3.0724199
3.9668 -1.93799 3.06218
4.1894302 -1.47153 3.0999999
4.1105099 -1.5547 3.0999999
4.0150299 -1.60348 3.06218
4.10111 -1.43741 3.0999999
4.11729 -1.53957 3.0999999
4.1831002 -2.0483401 3.06218
4.2547798 -1.97463 3.06218
3.97383 -1.80092 3.06218
4.0072198 -2.1236999 3.0999999
4.0699601 -1.9728301 3.0999999
4.0893602 -1.53295 3.0999999
4.0483799 -1.90116 3.06218
3.99224 -1.85522 3.06218
4.0780401 -1.4190201 3.06218
4.0166702 -1.94191 3.06218
4.08849 -1.38157 3.0999999
3.9665401 -1.6341799 3.08793
4.0302601 -1.49178 3.06218
4.1098399 -1.58083 3.0999999
4.2589302 -1.92182 3.06218
4.1902199 -1.89538 3.0999999
3.9899399 -1.45429 3.06218
3.9665401 -1.46189 3.0797801
4.0494099 -1.90802 3.0999999
3.99316 -2.0371301 3.0999999
4.00597 -1.84481 3.0999999
3.97878 -2.0699799 3.06218
4.09236 -1.61462 3.06218
3.99105 -2.0492301 3.0999999
4.1946402 -2.0181601 3.0999999
4.0511198 -1.9795099 3.06218
4.22472 -1.35978 3.06218
4.27701 -1.40741 3.0999999
4.0612302 -1.8479 3.06218
4.1135101 -1.849 3.0999999
4.02356 -1.5072 3.06218
4.0486698 -1.61686 3.0999999
4.2241802 -2.0610001 3.06218
4.0760198 -2.0852499 3.06218
3.9786 -1.72835 3.06218
4.145 -1.52929 3.0999999
4.0236602 -1.46288 3.0999999
4.1149001 -1.41952 3.06218
4.08109 -2.0545001 3.0999999
4.1035099 -1.6731499 3.06218
4.1511202 -1.50147 3.0999999
4.00666 -1.7036999 3.0999999
4.11099 -1.76244 3.0999999
4.2614198 -1.44059 3.0999999
4.0442901 -1.94935 3.06218
4.0106101 -1.3789901 3.0999999
4.0607901 -2.1182699 3.0999999
4.1451998 -1.39754 3.06218
4.0672898 -1.8571301 3.06218
4.1778102 -1.56675 3.0999999
4.0696602 -1.67349 3.06218
4.0060201 -1.87351 3.06218
4.1013699 -1.98959 3.0999999
3.99493 -1.53672 3.0999999
4.0651999 -1.66255 3.06218
3.9848599 -1.92866 3.06218
4.03128 -1.64893 3.0999999
4.1206102 -1.91603 3.0999999
4.0622101 -1.8829401 3.06218
4.12888 -1.44013 3.0999999
3.9844201 -1.5953701 3.0999999
3.9665401 -1.66514 3.0683601
4.1546302 -1.31364 3.06218
4.1477399 -2.0847001 3.0999999
4.0106101 -1.3789901 3.0999999
4.28093 -1.90354 3.0999999
4.0398302 -1.96409 3.0999999
4.2829099 -1.35391 3.0999999
4.0475302 -1.49546 3.0999999
4.0348802 -1.39299 3.06218
4.1682801 -2.08497 3.06218
4.05513 -1.63032 3.06218
4.0605998 -1.7021101 3.06218
4.0062499 -1.54254 3.06218
4.1243801 -1.35672 3.0999999
4.2060299 -1.95072 3.0999999
3.9709499 -2.0030301 3.0999999
3.97173 -1.63942 3.0999999
4.1199799 -2.0267799 3.06218
4.1456499 -2.0871999 3.06218
4.1880898 -1.35192 3.0999999
4.0083699 -1.56127 3.06218
3.9665401 -1.43551 3.0834799
4.18051 -2.03215 3.0999999
4.1729102 -1.44338 3.0999999
4.24827 -1.9365 3.0999999
4.1643801 -2.0459499 3.06218
4.0344 -2.08551 3.06218
4.1396399 -2.0058999 3.06218
3.9870501 -1.8428299 3.06218
4.0811701 -2.06285 3.0999999
4.1315999 -1.34928 3.06218
4.1946502 -1.3789099 3.06218
4.0218701 -1.70105 3.06218
3.99828 -1.86048 3.0999999
3.97629 -1.61555 3.0999999
4.1584301 -1.88095 3.0999999
4.0581198 -1.45588 3.06218
4.0788798 -1.8241 3.06218
3.9949601 -1.95225 3.0999999
3.96734 -1.77396 3.0999999
4.1630702 -1.54538 3.0999999
4.0008998 -1.80106 3.0999999
4.2726698 -1.94024 3.0999999
4.0923901 -1.75941 3.06218
4.00595 -2.0531199 3.06218
4.2532501 -1.92283 3.0999999
4.1536899 -1.52904 3.06218
4.0327201 -1.76687 3.06218
4.0945702 -1.51503 3.0999999
4.0127902 -1.9893 3.06218
3.9863901 -1.7953 3.0999999
4.1190901 -1.65206 3.0999999
4.1010399 -1.74288 3.0999999
4.0387602 -1.9224 3.0999999
4.0612798 -1.75657 3.06218
3.9977601 -1.3695 3.0999999
4.0412698 -1.74931 3.06218
3.98949 -1.45223 3.0999999
3.9886401 -1.5691299 3.0999999
4.1442599 -1.59574 3.0999999
4.1989498 -1.40289 3.0999999
4.08425 -1.45786 3.0999999
4.0545101 -1.43671 3.0999999
4.0520501 -1.47521 3.06218
4.06952 -1.5326101 3.0999999
4.1791201 -1.81969 3.0999999
4.0360599 -1.35765 3.06218
4.0582199 -2.09922 3.0999999
4.0229902 -1.42068 3.0999999
4.1846099 -1.4043601 3.06218
4.0131402 -1.54976 3.0999999
4.0448298 -1.64094 3.0999999
4.1763902 -2.05214 3.06218
4.2182202 -1.3482701 3.0999999
3.97997 -2.00492 3.0999999
4.0082598 -1.71961 3.06218
4.0989099 -2.0718701 3.06218
4.0865102 -1.94564 3.0999999
4.0013399 -1.8283499 3.06218
3.9749401 -1.97741 3.0999999
4.04425 -1.46705 3.06218
3.9895999 -1.78738 3.0999999
3.9665401 -1.82477 3.0824499
4.23594 -1.39554 3.0999999
4.0725598 -1.66172 3.06218
3.98311 -1.35563 3.0999999
3.9761701 -1.65491 3.0999999
3.9755399 -2.0708301 3.06218
4.2076898 -1.88495 3.0999999
4.03297 -1.89182 3.06218
4.0598698 -2.0730901 3.0999999
4.0106101 -1.3789901 3.0999999
4.13027 -1.34587 3.06218
3.98335 -1.79317 3.06218
4.1846499 -1.34917 3.0999999
3.9920399 -1.512 3.06218
4.1743202 -1.9482501 3.06218
4.0374298 -2.0044701 3.06218
4.1072001 -1.50563 3.06218
4.2044001 -1.8702 3.06218
4.08109 -1.40022 3.06218
4.2690101 -2.0682499 3.0999999
4.0564599 -1.57348 3.06218
4.1609502 -1.99727 3.06218
4.0278101 -1.6600699 3.0999999
3.9665401 -1.6356601 3.0834
3.9803901 -1.43455 3.06218
3.99788 -1.3769 3.06218
3.98469 -1.89853 3.0999999
4.2609 -2.0572 3.06218
4.2844501 -2.05265 3.06218
4.0355601 -1.63406 3.06218
4.0075202 -1.4897 3.0999999
4.2279601 -1.98763 3.0999999
4.0552702 -1.91237 3.0999999
3.9906001 -1.59407 3.0999999
4.01404 -2.1033001 3.06218
4.15768 -1.80945 3.06218
3.9921501 -1.82401 3.06218
4.0648499 -1.4662499 3.06218
4.0268898 -1.83167 3.0999999
4.14326 -2.0046301 3.06218
4.2739401 -1.3954 3.0999999
4.0968599 -1.4227099 3.0999999
3.9665401 -1.8705601 3.0820999
3.9665401 -2.0957899 3.0882299
4.1907701 -1.9633 3.0999999
4.2423801 -1.8581899 3.0999999
4.0907502 -1.78426 3.06218
3.9974999 -1.49516 3.0999999
3.98891 -1.40145 3.06218
4.0629501 -1.90642 3.06218
4.1984801 -2.04688 3.0999999
4.1603999 -1.57221 3.06218
3.9665401 -1.87515 3.09689
4.0567002 -2.06288 3.06218
4.1768198 -1.95891 3.0999999
3.9755399 -2.0708301 3.06218
4.10675 -1.71057 3.06218
4.1874399 -1.48551 3.06218
3.9842401 -1.80222 3.0999999
4.21064 -1.91462 3.0999999
3.98721 -1.76278 3.06218
4.0567002 -2.06288 3.06218
3.9691401 -1.3713599 3.06218
3.9815099 -1.81647 3.06218
3.9890399 -1.55725 3.0999999
4.0160198 -1.34561 3.06218
4.2149801 -2.07603 3.06218
4.06177 -1.4435 3.0999999
4.17556 -1.53099 3.0999999
4.0704498 -1.67014 3.0999999
4.20785 -1.37977 3.0999999
4.0520501 -1.47521 3.06218
3.99228 -1.7941 3.0999999
4.1435099 -1.75077 3.0999999
4.0082598 -1.71961 3.06218
4.2449098 -2.0127001 3.06218
4.2435198 -2.05108 3.0999999
4.0871301 -1.78548 3.0999999
4.1638999 -1.4209 3.0999999
4.0494099 -1.39203 3.06218
4.09408 -1.46025 3.0999999
4.1265502 -1.51316 3.0999999
4.07162 -2.0918901 3.0999999
4.2532501 -1.92283 3.0999999
4.0423002 -1.51429 3.0999999
3.9778099 -1.57421 3.06218
4.23628 -1.99201 3.06218
3.9944799 -1.91869 3.06218
4.0651999 -1.66255 3.06218
4.09378 -1.57547 3.0999999
4.1599398 -1.52642 3.06218
3.9816799 -1.85505 3.0999999
3.9716401 -2.0497301 3.06218
3.9665401 -1.88343 3.07813
4.13517 -1.93088 3.0999999
4.0065699 -1.9742 3.0999999
4.0563502 -1.7188801 3.0999999
3.9665401 -1.39223 3.0816
4.0094299 -1.4039299 3.0999999
4.14785 -1.36871 3.06218
4.0316601 -2.0132799 3.0999999
3.99788 -1.3769 3.06218
4.1049099 -1.51802 3.06218
3.9665401 -2.1279299 3.0813601
3.9665401 -1.74099 3.09109
4.1999698 -2.0845699 3.0999999
3.97018 -1.82218 3.06218
4.17171 -1.88493 3.0999999
3.9665401 -2.01401 3.08621
4.1135101 -1.849 3.0999999
4.10111 -1.43741 3.0999999
3.98721 -1.76278 3.06218
4.1845798 -1.8124501 3.0999999
4.1223502 -1.4986399 3.0999999
4.1553898 -2.00003 3.0999999
4.02707 -1.98271 3.06218
4.0125399 -1.45547 3.06218
3.96731 -1.43538 3.0999999
3.9665401 -1.59089 3.09215
4.2804298 -1.89048 3.06218
4.1630402 -1.5608701 3.0999999
4.1616101 -1.45175 3.0999999
4.14326 -2.0046301 3.06218
4.0344 -2.08551 3.06218
3.9851 -1.92838 3.0999999
4.0851598 -2.07358 3.0999999
4.0825901 -2.013 3.0999999
4.15978 -2.0036199 3.06218
4.10428 -1.6378 3.06218
3.9665401 -1.5834 3.0936201
4.16854 -1.41835 3.06218
4.1545501 -1.39465 3.0999999
4.0442901 -1.94935 3.06218
4.0355601 -1.63406 3.06218
4.0218201 -1.46231 3.06218
4.0839601 -1.47313 3.06218
4.22715 -1.48739 3.0999999
4.2003198 -1.87216 3.06218
4.0931802 -1.3857599 3.06218
4.03195 -1.8282501 3.06218
4.0429301 -1.44287 3.0999999
4.2592702 -1.93125 3.0999999
4.16816 -1.40862 3.0999999
4.1166601 -1.87315 3.0999999
3.9871299 -1.65394 3.0999999
3.9698601 -1.58986 3.0999999
3.9760799 -1.37765 3.06218
4.0398302 -1.8345799 3.06218
4.0268102 -1.46393 3.06218
3.98329 -1.55629 3.0999999
4.0414901 -1.7282 3.06218
4.0261502 -1.7474101 3.06218
4.01367 -1.3517801 3.06218
4.0785499 -2.1076701 3.0999999
4.26858 -1.99116 3.0999999
4.1729898 -1.47686 3.06218
4.1603899 -1.83972 3.06218
3.9665401 -1.70118 3.0910101
4.0377698 -1.7281801 3.06218
4.1405101 -1.5934401 3.06218
4.1072001 -1.50563 3.06218
4.0563502 -1.7188801 3.0999999
4.15768 -1.80945 3.06218
3.9665401 -1.7435 3.0792999
4.0820198 -1.57967 3.06218
4.0474601 -1.9633 3.06218
4.2501798 -1.94206 3.06218
4.0989099 -2.0718701 3.06218
4.0957799 -1.56317 3.06218
4.0109501 -1.94733 3.0999999
4.1959701 -1.41853 3.06218
4.1258998 -1.86408 3.0999999
3.9665401 -1.39223 3.0816
4.2726698 -1.94024 3.0999999
4.0573201 -1.3943501 3.0999999
4.2532501 -1.92283 3.0999999
4.1371102 -2.04495 3.06218
4.0485101 -1.8777 3.06218
4.0834198 -1.4358799 3.06218
4.02917 -1.46691 3.0999999
3.9665401 -1.83122 3.0639801
4.0654802 -1.69792 3.06218
4.23247 -1.33848 3.0999999
4.1127901 -1.3766 3.06218
4.2417102 -1.39688 3.0999999
4.16995 -1.8037699 3.0999999
4.2313399 -1.9612499 3.0999999
4.1143198 -1.8987 3.0999999
4.1068802 -1.8568799 3.0999999
3.9761701 -1.65491 3.0999999
4.0629501 -1.90642 3.06218
4.1190901 -1.65206 3.0999999
3.9665401 -1.43551 3.0834799
4.0374498 -1.80958 3.06218
4.0638199 -1.73779 3.06218
4.2757902 -1.3645 3.06218
4.0834398 -1.68225 3.06218
4.0065598 -1.78348 3.0999999
4.0324502 -1.77746 3.0999999
4.10502 -1.42269 3.0999999
4.06952 -1.5326101 3.0999999
3.9984801 -1.9847 3.06218
3.9725599 -1.61554 3.06218
4.15413 -1.81142 3.0999999
4.1969299 -1.99586 3.06218
4.0378599 -1.64893 3.0999999
4.1435099 -1.75077 3.0999999
3.9918799 -1.39584 3.06218
4.0525599 -2.0365601 3.0999999
3.9691401 -1.3713599 3.06218
4.1862402 -1.54334 3.0999999
4.1570001 -2.0564301 3.0999999
4.2178702 -2.09425 3.06218
3.9828401 -1.37577 3.0999999
4.0619202 -1.39912 3.0999999
4.1080799 -1.39153 3.0999999
4.2539601 -2.09639 3.06218
4.0494099 -1.90802 3.0999999
3.96734 -1.77396 3.0999999
4.0455499 -1.46198 3.0999999
4.1729898 -1.47686 3.06218
4.1616101 -1.45175 3.0999999
4.22575 -1.45401 3.06218
4.0897198 -1.90706 3.0999999
4.1178002 -1.9733 3.06218
4.0785499 -2.1076701 3.0999999
4.2260299 -1.83211 3.06218
4.1874499 -2.0596099 3.0999999
3.98335 -1.79317 3.06218
4.2603202 -2.01682 3.0999999
3.9886501 -1.52122 3.06218
4.0900698 -1.7994699 3.06218
4.0015802 -1.43056 3.06218
4.0191498 -2.0491099 3.06218
4.0482202 -1.63248 3.06218
4.0155802 -1.7996 3.06218
3.9668 -1.93799 3.06218
4.0065598 -1.78348 3.0999999
3.9912 -1.60655 3.0999999
3.9925001 -1.3756599 3.0999999
4.1072302 -1.59035 3.0999999
4.04493 -2.1154399 3.0999999
3.9665401 -2.12185 3.07885
4.0030699 -1.43381 3.0999999
4.28128 -1.3861001 3.0999999
4.14186 -1.39118 3.0999999
4.2650399 -2.0383301 3.06218
3.9895999 -1.39307 3.0999999
4.05687 -1.87731 3.06218
4.08183 -1.79511 3.06218
4.1293001 -1.53009 3.0999999
3.9665401 -1.88343 3.07813
4.2622399 -1.98525 3.06218
4.10531 -1.80822 3.06218
4.0167499 -2.0169599 3.0999999
4.0943799 -1.84302 3.06218
3.9665401 -1.35651 3.0811701
4.1837001 -1.97346 3.06218
4.14189 -1.47786 3.0999999
3.9758301 -1.99542 3.0999999
3.9665401 -1.77036 3.08865
3.9815099 -1.81647 3.06218
4.0482202 -1.63248 3.06218
4.2151599 -2.02123 3.0999999
3.9760499 -1.7035201 3.06218
4.1656899 -1.87458 3.0999999
3.9665401 -1.6356601 3.0834
3.9665401 -1.61885 3.09937
4.0704002 -1.42531 3.0999999
4.2467299 -1.8385299 3.06218
4.11906 -1.4962699 3.06218
4.2596002 -1.85887 3.06218
4.1451998 -1.39754 3.06218
4.1977 -1.85923 3.0999999
4.0912199 -2.10022 3.0999999
4.0700798 -1.34879 3.06218
4.2279601 -1.98763 3.0999999
4.0963001 -1.7193 3.0999999
3.9984801 -1.9847 3.06218
3.9939599 -1.98641 3.0999999
4.2034402 -1.44522 3.0999999
4.2539601 -2.09639 3.06218
4.1381102 -1.48457 3.0999999
3.9902999 -2.1224101 3.0999999
3.9665401 -1.70118 3.0910101
4.2185402 -1.37088 3.0999999
3.9665401 -1.76168 3.08922
4.1989498 -1.40289 3.0999999
4.1794901 -1.9828399 3.0999999
4.1849799 -1.92936 3.0999999
4.0015502 -1.43567 3.06218
4.0215502 -1.93154 3.0999999
4.0582099 -1.4987299 3.06218
3.9946201 -1.72472 3.0999999
4.0323701 -1.63328 3.06218
4.1143699 -1.62291 3.06218
4.0882902 -1.51914 3.06218
4.17169 -1.85361 3.06218
4.0106101 -1.3789901 3.0999999
4.15869 -1.77279 3.0999999
4.2128901 -1.89855 3.06218
4.0859399 -2.10236 3.06218
3.9665401 -1.7779 3.09338
4.1631298 -1.85803 3.0999999
4.0780201 -1.74236 3.0999999
4.0664701 -1.97916 3.06218
4.1143699 -1.62291 3.06218
4.1051798 -1.5933 3.0999999
3.9725599 -1.61554 3.06218
3.9665401 -1.66737 3.0635099
3.9665401 -1.7779 3.09338
3.99719 -1.42734 3.0999999
3.99231 -1.58161 3.06218
4.0908899 -1.99212 3.06218
4.1371398 -1.8565 3.0999999
4.0795398 -1.4087501 3.0999999
4.2086301 -1.33708 3.0999999
3.9755199 -1.7149301 3.06218
4.2475901 -1.37177 3.0999999
4.0482202 -1.63248 3.06218
4.04493 -2.1154399 3.0999999
4.0244999 -1.4141099 3.0999999
4.0525599 -2.0365601 3.0999999
4.0079598 -1.9557101 3.0999999
4.0634899 -1.3661 3.06218
4.2123899 -1.38955 3.0999999
4.0959702 -1.3748 3.06218
3.9716401 -2.0497301 3.06218
4.0065699 -1.9742 3.0999999
4.0506201 -1.50682 3.06218
4.1468701 -1.96626 3.06218
4.18188 -1.87204 3.06218
4.0259099 -1.7785701 3.0999999
3.9779799 -1.65232 3.06218
4.1364899 -2.0219901 3.0999999
4.0283799 -1.95629 3.06218
3.97633 -1.94769 3.06218
4.0131402 -1.54976 3.0999999
4.1210198 -1.6815 3.0999999
4.2650399 -2.0383301 3.06218
4.23072 -1.47798 3.0999999
4.0291901 -1.3512501 3.0999999
4.11235 -1.49922 3.06218
3.99545 -1.97033 3.0999999
4.1241598 -1.36233 3.06218
4.2691398 -1.41488 3.06218
3.9665401 -2.07655 3.08957
4.2357998 -1.97918 3.06218
4.0892701 -1.5362 3.0999999
4.1603999 -1.57221 3.06218
4.0918999 -1.40683 3.06218
4.0991402 -2.00383 3.06218
4.0379 -2.02425 3.06218
4.1033702 -1.6267101 3.0999999
4.04146 -1.64777 3.06218
4.1676202 -1.38436 3.0999999
4.0272999 -1.7087801 3.06218
3.9665401 -1.41703 3.07324
4.0452499 -1.6515 3.0999999
4.0976601 -1.38345 3.06218
4.0731702 -1.65911 3.0999999
4.21876 -2.06094 3.06218
4.03442 -1.58219 3.06218
4.20081 -1.39727 3.0999999
4.0620098 -1.59399 3.06218
4.0103002 -2.1098499 3.06218
3.97382 -2.0019 3.06218
4.13517 -1.93088 3.0999999
4.1269798 -1.86201 3.0999999
4.1377602 -1.55581 3.0999999
4.0318198 -1.71567 3.0999999
3.9734001 -1.59445 3.06218
4.2238402 -1.4976701 3.0999999
4.16572 -2.0353999 3.0999999
4.0278101 -1.6600699 3.0999999
4.0704498 -1.67014 3.0999999
4.0581298 -2.09203 3.06218
4.1350002 -1.41406 3.06218
4.2843599 -1.8442301 3.0999999
4.02881 -1.35175 3.0999999
3.9665401 -1.75334 3.0715499
4.2609 -2.0572 3.06218
4.09518 -2.0518601 3.0999999
4.1669898 -1.50587 3.0999999
4.0356598 -2.0692101 3.0999999
3.9765401 -1.9045 3.0999999
4.18543 -1.5513999 3.0999999
4.0968599 -1.4227099 3.0999999
3.9665401 -1.66514 3.0683601
3.9665401 -1.72065 3.0852399
4.0188599 -1.43161 3.0999999
4.0582199 -2.09922 3.0999999
4.0409799 -1.84589 3.0999999
4.1293001 -1.53009 3.0999999
3.96734 -1.77396 3.0999999
3.9921801 -2.06355 3.0999999
4.1553502 -1.80246 3.06218
4.1958599 -1.82287 3.06218
3.9762101 -1.60645 3.0999999
4.0959301 -1.60844 3.0999999
4.1682801 -2.08497 3.06218
4.1380501 -1.45372 3.06218
4.0973501 -2.0734301 3.06218
4.0350499 -1.6059099 3.0999999
4.0381699 -1.8840801 3.06218
3.9704499 -2.0638599 3.0999999
4.2133498 -1.37787 3.0999999
4.2195001 -1.84944 3.06218
3.9665401 -1.9408799 3.0692501
4.2325301 -1.93764 3.0999999
4.0348802 -1.39299 3.06218
4.0528498 -1.5508699 3.0999999
4.05687 -1.87731 3.06218
4.11588 -1.97016 3.06218
4.0399399 -1.48295 3.0999999
4.0209098 -1.94565 3.0999999
4.1742601 -1.88729 3.06218
4.1619 -1.88451 3.0999999
4.2788 -1.8854001 3.06218
4.1624699 -1.45402 3.06218
3.97383 -1.80092 3.06218
3.9687099 -2.04335 3.0999999
4.0857501 -1.7544 3.06218
4.0756402 -1.61761 3.0999999
4.2197299 -2.05829 3.06218
4.1632099 -1.99324 3.06218
3.9665401 -1.89494 3.09951
3.9665401 -1.41336 3.0710299
4.18818 -1.83806 3.0999999
3.9665401 -1.60119 3.0933199
4.0422502 -1.72641 3.06218
4.1210198 -1.6815 3.0999999
4.2731299 -2.0959899 3.06218
4.0185699 -1.90729 3.06218
4.2076502 -1.5004801 3.06218
4.2751398 -2.07775 3.06218
3.9665401 -1.5309 3.0908599
4.1062298 -1.44524 3.0999999
4.0060201 -1.87351 3.06218
4.1791201 -1.81969 3.0999999
4.02917 -1.46691 3.0999999
4.27986 -1.99138 3.0999999
3.9981501 -2.0961499 3.0999999
4.1542501 -1.41404 3.0999999
4.0344 -2.08551 3.06218
4.0735002 -1.3793499 3.06218
3.97386 -1.42083 3.06218
4.1944499 -1.81871 3.0999999
4.0984602 -1.7817 3.0999999
4.1852298 -1.39569 3.06218
3.99103 -1.97936 3.06218
4.0603299 -1.76045 3.06218
4.22472 -1.35978 3.06218
4.2241001 -1.99279 3.0999999
4.1821699 -2.01122 3.06218
4.0097899 -1.5049 3.0999999
4.0002398 -1.69302 3.06218
4.1603899 -1.83972 3.06218
4.2641401 -2.0581901 3.06218
4.1547599 -1.95752 3.06218
4.2423902 -2.1021199 3.0999999
3.99243 -1.49291 3.0999999
4.0455499 -1.46198 3.0999999
4.0668001 -1.47765 3.06218
4.0273199 -1.61336 3.06218
4.1185298 -1.67189 3.0999999
4.2249198 -1.4969 3.06218
4.13304 -1.56613 3.06218
3.9763701 -1.64612 3.06218
4.1728001 -1.45363 3.0999999
4.01613 -1.88854 3.0999999
4.0945702 -1.51503 3.0999999
4.0095901 -1.43448 3.06218
4.08883 -1.68381 3.0999999
4.1324301 -1.70078 3.0999999
4.1989498 -1.40289 3.0999999
4.05726 -1.9922301 3.06218
3.9665401 -1.55276 3.0736201
4.1189799 -1.51387 3.06218
3.9872701 -2.0952301 3.06218
4.0343399 -1.57386 3.0999999
4.0904799 -1.42773 3.0999999
4.1904898 -1.5184799 3.0999999
4.0703101 -1.78143 3.0999999
4.2234201 -2.0722499 3.0999999
4.05091 -2.1146901 3.06218
4.07584 -1.70353 3.06218
4.0376401 -1.77733 3.0999999
4.0917201 -1.98772 3.0999999
4.14959 -1.76457 3.06218
4.1030202 -1.44593 3.0999999
4.1979599 -1.8777601 3.0999999
4.21347 -2.02985 3.0999999
4.1254702 -1.51538 3.06218
4.1852298 -1.39569 3.06218
4.0467401 -1.4266599 3.06218
4.0606499 -1.57402 3.0999999
4.0185099 -1.63029 3.0999999
4.06426 -1.38605 3.0999999
4.145 -1.52929 3.0999999
4.1866398 -1.41527 3.0999999
4.0166702 -1.94191 3.06218
4.1921301 -1.4530801 3.0999999
3.9825201 -1.82888 3.0999999
4.1831999 -1.81365 3.06218
4.22474 -1.86713 3.06218
4.0531402 -2.0697999 3.06218
4.27246 -2.1136 3.06218
4.1485901 -1.8739901 3.0999999
4.03195 -1.8282501 3.06218
4.1694999 -1.91987 3.0999999
4.1072001 -1.50563 3.06218
3.9763701 -1.64612 3.06218
4.1466999 -1.55694 3.06218
4.2691398 -1.41488 3.06218
4.08954 -2.08973 3.06218
4.02881 -1.35175 3.0999999
4.1066198 -1.96289 3.06218
4.0351901 -2.0999999 3.06218
4.0871301 -1.78548 3.0999999
4.1946402 -2.0181601 3.0999999
3.9665401 -1.39223 3.0816
3.98311 -1.35563 3.0999999
4.1609502 -1.99727 3.06218
4.17171 -1.55252 3.06218
4.0587602 -1.93718 3.0999999
4.1546302 -1.31364 3.06218
4.0573201 -1.3943501 3.0999999
3.9740901 -1.8178101 3.06218
4.1609502 -1.99727 3.06218
4.0926199 -1.4319299 3.0999999
4.1371002 -1.87991 3.0999999
4.1118598 -1.88871 3.06218
4.2423801 -1.8581899 3.0999999
3.9665401 -0.97827798 3.09776
3.9665401 -0.97794801 3.08143
3.9665401 -0.97849298 3.06441
3.9665401 -0.98768097 3.0623
4.1747799 -1.03102 3.0999999
4.2498598 -0.229711 3.0999999
4.2054 -1.01098 3.0999999
4.2701201 -0.14169499 3.0999999
4.1477699 -0.95063603 3.0999999
4.1845798 -0.93775302 3.0999999
4.2492499 -0.205608 3.0999999
4.1374502 -0.47246799 3.0999999
4.2220101 -0.14902499 3.0999999
4.2806401 -0.20275301 3.0999999
4.22225 -0.26048401 3.0999999
4.11061 -0.94338799 3.0999999
4.2171402 -0.92640603 3.0999999
4.1611199 -1.00808 3.0999999
4.2326698 -0.98211002 3.0999999
4.26861 -1.00936 3.0999999
4.2850599 -1.02393 3.0999999
4.2319398 -0.276804 3.0999999
4.1515098 -0.99655598 3.0999999
4.2817502 -0.19545799 3.0999999
4.2480302 -0.15381999 3.0999999
4.16609 -0.91615802 3.0999999
4.2239099 -0.92240202 3.0999999
4.1495299 -0.91220403 3.0999999
4.12989 -0.95306098 3.0999999
4.1795201 -0.96144301 3.0999999
4.2049198 -0.988518 3.0999999
4.2448401 -0.24785399 3.0999999
4.0861902 -0.448266 3.0999999
4.26579 -1.00849 3.0999999
4.1047301 -0.43716401 3.0999999
4.1409402 -0.46565199 3.0999999
4.1943898 -1.01048 3.0999999
4.2787499 -0.157755 3.0999999
4.2526202 -0.87642002 3.0999999
4.1731701 -0.99991798 3.0999999
4.10285 -0.43088001 3.0999999
4.1943498 -1.02037 3.0999999
4.26724 -0.169695 3.0999999
4.22258 -0.229305 3.0999999
4.1786098 -1.00968 3.0999999
4.1816602 -0.95347399 3.0999999
4.1715498 -0.91600299 3.0999999
4.2246699 -0.28357601 3.0999999
4.1276002 -0.99047703 3.0999999
4.2634401 -0.194134 3.0999999
4.1781201 -0.91732103 3.0999999
4.2091098 -0.947366 3.0999999
4.2536702 -0.177196 3.0999999
4.1637702 -0.91655999 3.0999999
4.2767601 -0.19298901 3.0999999
4.24682 -0.23969901 3.0999999
4.2512999 -0.93028301 3.0999999
4.08568 -0.96827602 3.0999999
4.1394901 -0.96640599 3.0999999
4.2352901 -0.133762 3.0999999
4.0865998 -0.94598699 3.0999999
4.2343502 -0.88316 3.0999999
4.2093701 -0.147138 3.0999999
4.2713399 -0.23365401 3.0999999
4.23419 -0.92527503 3.0999999
4.2608199 -0.188998 3.0999999
4.0887499 -0.958776 3.0999999
4.2592702 -0.87756002 3.0999999
4.2092299 -0.97200698 3.0999999
4.2767601 -0.87003303 3.0999999
4.2233601 -0.98852497 3.0999999
4.1252999 -0.47185999 3.0999999
4.1352401 -0.45890799 3.0999999
4.1096501 -0.93321502 3.0999999
4.2036901 -0.153988 3.0999999
4.2332401 -0.983576 3.0999999
4.2528601 -0.91077602 3.0999999
4.1381102 -0.91178399 3.0999999
4.2037902 -0.96074098 3.0999999
4.1314702 -0.95922202 3.0999999
4.2420902 -0.96659398 3.0999999
4.2372799 -0.20311899 3.0999999
4.2344799 -0.171068 3.0999999
4.1329398 -0.970487 3.0999999
4.2375002 -0.89756602 3.0999999
4.1831298 -0.98711801 3.0999999
4.1725402 -0.907906 3.0999999
4.23067 -0.89198399 3.0999999
4.2535901 -0.96940398 3.0999999
4.2802501 -0.214742 3.0999999
4.24649 -0.978661 3.0999999
4.1049099 -0.966196 3.0999999
4.1967001 -0.15307599 3.0999999
4.15238 -0.96108401 3.0999999
4.2034101 -0.89761299 3.0999999
4.22049 -0.17898799 3.0999999
4.1406898 -0.466535 3.0999999
4.2151098 -0.91214103 3.0999999
4.1435299 -0.477534 3.0999999
4.2653599 -0.93044102 3.0999999
4.1907101 -0.94362998 3.0999999
4.1031699 -0.97697502 3.0999999
4.2854199 -0.86220998 3.0999999
4.1988802 -0.93391401 3.0999999
4.2249599 -0.137959 3.0999999
4.2564402 -0.89279401 3.0999999
4.1008902 -0.98223197 3.0999999
4.2252798 -0.153666 3.0999999
4.2296901 -0.21145999 3.0999999
4.1373601 -0.48202899 3.0999999
4.2508202 -0.19394401 3.0999999
4.2282901 -0.980838 3.0999999
4.2686701 -0.95404297 3.0999999
4.2364202 -0.90196198 3.0999999
4.2403798 -0.230864 3.0999999
4.24862 -0.884516 3.0999999
4.2437201 -0.13870101 3.0999999
4.2366099 -0.98340201 3.0999999
4.2342901 -0.159251 3.0999999
4.2627602 -1.01687 3.0999999
4.1417499 -0.48730001 3.0999999
4.2168899 -0.93561602 3.0999999
4.21492 -0.95784497 3.0999999
4.1138 -0.97965699 3.0999999
4.1715498 -0.96946102 3.0999999
4.2796001 -0.96622998 3.0999999
4.0988498 -0.97719699 3.0999999
4.2548599 -1.01598 3.0999999
4.27565 -0.90724701 3.0999999
4.20403 -0.943353 3.0999999
4.2202702 -0.88570201 3.0999999
4.11305 -0.94307899 3.0999999
4.1954799 -0.97865701 3.0999999
4.1391201 -0.92380798 3.0999999
4.2729702 -0.25503799 3.0999999
4.11906 -0.44594201 3.0999999
4.2720199 -0.99802899 3.0999999
4.2307601 -0.191957 3.0999999
4.13169 -0.41632801 3.0999999
4.2550402 -0.161814 3.0999999
4.21492 -0.960504 3.0999999
4.16504 -0.97182798 3.0999999
4.2577701 -0.95091802 3.0999999
4.2722101 -0.92033201 3.0999999
4.0693002 -0.97503197 3.0999999
4.2218699 -0.213557 3.0999999
4.1431999 -0.935233 3.0999999
4.2115502 -0.94373697 3.0999999
4.2074399 -0.162284 3.0999999
4.2211599 -0.20814601 3.0999999
4.26472 -0.25807601 3.0999999
4.27141 -0.891047 3.0999999
4.2069101 -0.177016 3.0999999
4.2558999 -0.205662 3.0999999
4.2223101 -0.159299 3.0999999
4.2586999 -1.01419 3.0999999
4.2561598 -0.149122 3.0999999
4.1100798 -0.42690599 3.0999999
4.2664299 -0.178241 3.0999999
4.1489501 -0.93631798 3.0999999
4.2664599 -0.18533701 3.0999999
4.1496801 -0.90359902 3.0999999
4.1373301 -0.95586699 3.0999999
4.1893802 -0.97408098 3.0999999
4.2673101 -0.93886203 3.0999999
4.2256098 -0.94845003 3.0999999
4.1751199 -0.913481 3.0999999
4.27245 -0.90712899 3.0999999
4.25073 -0.90105098 3.0999999
4.1431599 -0.91498101 3.0999999
4.28263 -0.24413399 3.0999999
4.25104 -0.13647 3.0999999
4.1079001 -0.93127298 3.0999999
4.1529398 -0.99768502 3.0999999
4.2473402 -0.161915 3.0999999
4.0952101 -0.43503001 3.0999999
4.1591802 -0.93664002 3.0999999
4.2631698 -0.92448401 3.0999999
4.27145 -0.215113 3.0999999
4.1406798 -0.475694 3.0999999
4.2102199 -0.96633101 3.0999999
4.2234998 -0.176238 3.0999999
4.2476902 -0.26932099 3.0999999
4.2298799 -0.24029601 3.06218
4.1338701 -0.423399 3.06218
4.0083799 -0.97173101 3.06218
4.1223798 -0.45341599 3.06218
4.1470299 -0.92938203 3.06218
4.1458998 -0.97166502 3.06218
4.1424398 -0.999349 3.06218
4.2160501 -0.204891 3.06218
4.2220998 -0.177191 3.06218
4.0939202 -0.44554201 3.06218
4.21942 -0.13763399 3.06218
4.2536302 -0.154212 3.06218
4.1633 -0.89787298 3.06218
4.1152802 -0.970258 3.06218
4.2494602 -0.246857 3.06218
4.15274 -0.95199001 3.06218
4.2002101 -0.132478 3.06218
4.1231298 -0.949682 3.06218
4.1574702 -0.918639 3.06218
4.1105299 -0.436425 3.06218
4.13203 -0.40818 3.06218
4.0975399 -0.429618 3.06218
4.2169399 -0.198357 3.06218
4.0788002 -0.96580899 3.06218
4.2404399 -0.13441899 3.06218
4.2345099 -0.23299 3.06218
4.2295399 -0.175309 3.06218
4.15976 -0.93419701 3.06218
4.1957202 -0.151907 3.06218
4.2118201 -0.187941 3.06218
4.2136898 -0.158795 3.06218
4.2101798 -0.15161 3.06218
4.2616 -0.157754 3.06218
4.2319698 -0.25176299 3.06218
4.1233802 -0.95000702 3.06218
4.2552199 -0.222454 3.06218
4.2607002 -0.180889 3.06218
4.1635098 -0.91263402 3.06218
4.1624799 -0.89095902 3.06218
4.2175398 -0.231922 3.06218
4.2230201 -0.277686 3.06218
4.22821 -0.17831101 3.06218
4.0921898 -0.973584 3.06218
4.25595 -0.17900001 3.06218
4.22576 -0.27038801 3.06218
4.0371399 -0.97114998 3.06218
4.1468401 -0.99138898 3.06218
4.1149001 -0.98012501 3.06218
4.0678501 -0.97545499 3.06218
4.0818901 -0.97305697 3.06218
4.0285101 -0.97544098 3.06218
4.2314701 -0.258452 3.06218
4.0599999 -0.436928 3.06218
4.07933 -0.95508897 3.06218
4.1097698 -0.463386 3.06218
4.1612802 -0.91374499 3.06218
3.97525 -0.97928202 3.06218
4.10604 -0.95037597 3.06218
4.1239901 -0.44260699 3.06218
4.1265001 -0.455861 3.06218
4.13167 -0.45708299 3.06218
4.1017098 -0.956541 3.06218
4.2322798 -0.23693199 3.06218
4.2065802 -0.142408 3.06218
4.0676398 -0.96415502 3.06218
4.2241302 -0.186584 3.06218
4.2288299 -0.15429699 3.06218
4.1122198 -0.97237402 3.06218
4.1265898 -0.42007101 3.06218
4.0580802 -0.43680099 3.06218
4.03859 -0.97200799 3.06218
4.2285199 -0.152473 3.06218
4.1331701 -0.471766 3.06218
4.1103802 -0.96903503 3.06218
4.2224102 -0.166273 3.06218
4.0315499 -0.96894401 3.06218
4.2533998 -0.227514 3.06218
4.1149902 -0.96250498 3.06218
4.1570601 -0.95257097 3.06218
4.25559 -0.13837799 3.06218
4.2397299 -0.219836 3.06218
4.0887299 -0.95859301 3.06218
4.1863699 -0.136177 3.06218
4.2143698 -0.17197999 3.06218
4.0818 -0.446551 3.06218
4.2491398 -0.162871 3.06218
4.2225299 -0.27796701 3.06218
4.2472501 -0.21627299 3.06218
4.2095799 -0.194215 3.06218
4.1167798 -0.43687499 3.06218
4.0858698 -0.448616 3.06218
4.0883198 -0.437774 3.06218
4.1040502 -0.441544 3.06218
3.9774201 -0.97468901 3.06218
4.14956 -0.99942899 3.06218
4.10502 -0.947806 3.06218
4.0721302 -0.95936501 3.06218
4.2452798 -0.184689 3.06218
4.2571702 -0.234798 3.06218
4.1524 -1.0119801 3.06218
4.2550602 -0.26200801 3.06218
4.1977201 -0.90562803 3.06218
4.1691599 -0.91705501 3.06218
4.1883402 -1.01336 3.06218
4.1740298 -0.93725699 3.06218
4.1870899 -0.98474503 3.06218
4.1838598 -0.95819998 3.06218
4.2060699 -1.01636 3.06218
4.1967201 -0.92669201 3.06218
4.18332 -0.87707901 3.06218
4.1939001 -0.88308603 3.06218
4.2695999 -0.157629 3.06218
4.2167802 -0.88308102 3.06218
4.1753101 -0.96013099 3.06218
4.1676998 -0.96443802 3.06218
4.26476 -0.239531 3.06218
4.26756 -0.19853 3.06218
4.22226 -0.95173502 3.06218
4.2677898 -0.168477 3.06218
4.2009602 -0.91562402 3.06218
4.2580099 -0.210694 3.06218
4.28581 -0.192579 3.06218
4.1802602 -0.99363202 3.06218
4.21767 -0.95541799 3.06218
4.1653099 -0.919011 3.06218
4.2054901 -0.94881898 3.06218
4.2652998 -0.23547301 3.06218
4.1606998 -0.94115198 3.06218
4.19628 -0.90542603 3.06218
4.26441 -0.18772 3.06218
4.1630502 -0.92717701 3.06218
4.2608299 -0.26378399 3.06218
4.2163401 -0.93181598 3.06218
4.2123499 -0.93089598 3.06218
4.2759099 -0.226302 3.06218
4.1984701 -0.88902497 3.06218
4.15273 -0.99449402 3.06218
4.1954598 -0.88162601 3.06218
4.1598601 -0.95767403 3.06218
4.1652899 -0.94806403 3.06218
4.1599598 -0.99898601 3.06218
4.2714901 -0.214802 3.06218
4.2009101 -0.88862199 3.06218
4.16048 -0.98457998 3.06218
4.19734 -0.95241302 3.06218
4.17553 -0.91185099 3.06218
4.2125101 -0.98145902 3.06218
4.19661 -0.89231497 3.06218
4.1640401 -1.0078599 3.06218
4.1756101 -0.960177 3.06218
4.2476201 -0.95991302 3.06218
4.2645898 -1.01215 3.06218
4.2585201 -1.00967 3.06218
4.2775402 -0.89671499 3.06218
4.2501702 -0.99578398 3.06218
4.2795 -0.95143002 3.06218
4.2240801 -0.962098 3.06218
4.2746301 -0.90848398 3.06218
4.2610402 -0.97957402 3.06218
4.2486901 -0.98998803 3.06218
4.2320299 -1.01143 3.06218
4.26056 -1.01218 3.06218
4.2494402 -0.97955197 3.06218
4.2571201 -0.91040897 3.06218
4.2831602 -0.89533198 3.06218
4.2368202 -0.99857599 3.06218
4.2796402 -0.92512 3.06218
4.2463398 -0.93948603 3.06218
4.27953 -0.88571101 3.06218
4.2644401 -0.93794101 3.06218
4.27426 -0.92927802 3.06218
4.2755299 -0.95482397 3.06218
4.2813601 -0.96378201 3.06218
4.24192 -0.91347998 3.06218
4.2746401 -0.95008498 3.06218
4.2432899 -0.95897102 3.06218
4.2340102 -0.99241602 3.06218
4.23035 -0.96827298 3.06218
4.2832298 -0.97574502 3.06218
4.24687 -0.903063 3.06218
4.26017 -0.89083803 3.06218
4.2312002 -0.99407798 3.06218
4.2695098 -1.00711 3.06218
4.2299299 -0.92829502 3.06218
4.2349601 -0.93845397 3.06218
4.2386298 -0.93141299 3.06218
4.25246 -0.92563099 3.06218
4.2645502 -0.91946203 3.06218
4.0887499 -0.958776 3.0999999
3.9774201 -0.97468901 3.06218
4.1652899 -0.94806403 3.06218
4.18332 -0.87707901 3.06218
4.2795 -0.95143002 3.06218
4.1233802 -0.95000702 3.06218
4.2218699 -0.213557 3.0999999
4.2645502 -0.91946203 3.06218
4.1373301 -0.95586699 3.0999999
4.2009101 -0.88862199 3.06218
4.22821 -0.17831101 3.06218
4.26472 -0.25807601 3.0999999
4.1047301 -0.43716401 3.0999999
4.28581 -0.192579 3.06218
4.2234998 -0.176238 3.0999999
4.2729702 -0.25503799 3.0999999
4.11305 -0.94307899 3.0999999
4.1740298 -0.93725699 3.06218
4.2307601 -0.191957 3.0999999
4.1988802 -0.93391401 3.0999999
4.15976 -0.93419701 3.06218
4.1105299 -0.436425 3.06218
4.2608199 -0.188998 3.0999999
4.2224102 -0.166273 3.06218
4.2526202 -0.87642002 3.0999999
4.2322798 -0.23693199 3.06218
4.19734 -0.95241302 3.06218
4.2249599 -0.137959 3.0999999
4.2494602 -0.246857 3.06218
4.1740298 -0.93725699 3.06218
4.2720199 -0.99802899 3.0999999
4.2608199 -0.188998 3.0999999
4.2036901 -0.153988 3.0999999
4.2755299 -0.95482397 3.06218
4.2695098 -1.00711 3.06218
3.9665401 -0.97849298 3.06441
4.1640401 -1.0078599 3.06218
4.23419 -0.92527503 3.0999999
4.1795201 -0.96144301 3.0999999
4.2326698 -0.98211002 3.0999999
4.1751199 -0.913481 3.0999999
4.2476201 -0.95991302 3.06218
4.1409402 -0.46565199 3.0999999
4.1431599 -0.91498101 3.0999999
4.2225299 -0.27796701 3.06218
4.2349601 -0.93845397 3.06218
4.2806401 -0.20275301 3.0999999
4.1167798 -0.43687499 3.06218
4.0865998 -0.94598699 3.0999999
4.2364202 -0.90196198 3.0999999
4.2634401 -0.194134 3.0999999
4.1715498 -0.91600299 3.0999999
4.21492 -0.960504 3.0999999
4.2009101 -0.88862199 3.06218
4.1802602 -0.99363202 3.06218
4.2220101 -0.14902499 3.0999999
4.2677898 -0.168477 3.06218
4.2404399 -0.13441899 3.06218
4.2832298 -0.97574502 3.06218
4.1105299 -0.436425 3.06218
4.2282901 -0.980838 3.0999999
4.13167 -0.45708299 3.06218
4.2796001 -0.96622998 3.0999999
4.1381102 -0.91178399 3.0999999
4.2533998 -0.227514 3.06218
4.1907101 -0.94362998 3.0999999
4.2115502 -0.94373697 3.0999999
4.2101798 -0.15161 3.06218
4.2729702 -0.25503799 3.0999999
4.2115502 -0.94373697 3.0999999
4.2592702 -0.87756002 3.0999999
4.2375002 -0.89756602 3.0999999
4.2720199 -0.99802899 3.0999999
4.0887499 -0.958776 3.0999999
4.2526202 -0.87642002 3.0999999
4.2123499 -0.93089598 3.06218
4.1047301 -0.43716401 3.0999999
4.2299299 -0.92829502 3.06218
4.2298799 -0.24029601 3.06218
4.1252999 -0.47185999 3.0999999
4.1954598 -0.88162601 3.06218
4.2746301 -0.90848398 3.06218
4.2345099 -0.23299 3.06218
4.2564402 -0.89279401 3.0999999
4.2115502 -0.94373697 3.0999999
4.1381102 -0.91178399 3.0999999
4.2220101 -0.14902499 3.0999999
4.2049198 -0.988518 3.0999999
4.2720199 -0.99802899 3.0999999
4.23419 -0.92527503 3.0999999
4.2054901 -0.94881898 3.06218
4.2342901 -0.159251 3.0999999
4.0693002 -0.97503197 3.0999999
4.2299299 -0.92829502 3.06218
4.15274 -0.95199001 3.06218
4.1008902 -0.98223197 3.0999999
4.2486901 -0.98998803 3.06218
4.1751199 -0.913481 3.0999999
4.26476 -0.239531 3.06218
4.1630502 -0.92717701 3.06218
4.2386298 -0.93141299 3.06218
4.2298799 -0.24029601 3.06218
4.2095799 -0.194215 3.06218
4.23067 -0.89198399 3.0999999
4.2561598 -0.149122 3.0999999
4.1652899 -0.94806403 3.06218
4.1496801 -0.90359902 3.0999999
4.1138 -0.97965699 3.0999999
4.25595 -0.17900001 3.06218
4.27426 -0.92927802 3.06218
4.2571702 -0.234798 3.06218
4.1753101 -0.96013099 3.06218
4.1458998 -0.97166502 3.06218
4.2571201 -0.91040897 3.06218
4.1017098 -0.956541 3.06218
4.15273 -0.99449402 3.06218
4.1374502 -0.47246799 3.0999999
4.1314702 -0.95922202 3.0999999
4.13169 -0.41632801 3.0999999
4.2695999 -0.157629 3.06218
4.2686701 -0.95404297 3.0999999
4.2091098 -0.947366 3.0999999
4.1100798 -0.42690599 3.0999999
4.2093701 -0.147138 3.0999999
4.24862 -0.884516 3.0999999
4.2202702 -0.88570201 3.0999999
4.2403798 -0.230864 3.0999999
4.1435299 -0.477534 3.0999999
4.2817502 -0.19545799 3.0999999
4.1409402 -0.46565199 3.0999999
4.2571702 -0.234798 3.06218
4.1409402 -0.46565199 3.0999999
3.9665401 -0.97794801 3.08143
4.27565 -0.90724701 3.0999999
4.1715498 -0.91600299 3.0999999
4.1715498 -0.91600299 3.0999999
4.16609 -0.91615802 3.0999999
4.2319698 -0.25176299 3.06218
4.22258 -0.229305 3.0999999
4.2332401 -0.983576 3.0999999
4.2536302 -0.154212 3.06218
4.2252798 -0.153666 3.0999999
4.2652998 -0.23547301 3.06218
4.2631698 -0.92448401 3.0999999
4.12989 -0.95306098 3.0999999
3.9665401 -0.97827798 3.09776
4.2375002 -0.89756602 3.0999999
4.25104 -0.13647 3.0999999
4.16504 -0.97182798 3.0999999
4.2349601 -0.93845397 3.06218
4.22821 -0.17831101 3.06218
4.25559 -0.13837799 3.06218
4.2795 -0.95143002 3.06218
4.1633 -0.89787298 3.06218
4.2345099 -0.23299 3.06218
4.22049 -0.17898799 3.0999999
4.2249599 -0.137959 3.0999999
4.1373301 -0.95586699 3.0999999
