# .PCD v0.7 - Point Cloud Data file format
VERSION 0.7
FIELDS x y z
SIZE 4 4 4
TYPE F F F
COUNT 1 1 1
WIDTH 259
HEIGHT 1
VIEWPOINT 0 0 0 1 0 0 0
POINTS 259
DATA ascii
-1.30672 -0.76476997 0.30353001
-1.30672 -0.76476997 0.30353001
-0.188638 1.28703 0.28095299
-0.20084301 1.26977 0.31375599
-0.20084301 1.30742 0.296114
-0.20084301 1.27686 0.326888
-0.20084301 1.27686 0.326888
-0.188638 1.2331899 0.31705099
-0.20084301 1.2652299 0.281093
-0.210794 1.26843 0.35393599
-0.188638 1.24306 0.37220901
-0.188638 1.20614 0.364115
-0.20084301 1.28002 0.28752401
-0.20084301 1.27767 0.334315
-0.188638 1.22954 0.33555701
-0.20084301 1.26359 0.28115699
-0.188638 1.29369 0.30368599
-0.20084301 1.29936 0.33193099
-0.23820101 1.28522 0.35393599
-0.188638 1.2521 0.33885899
-0.188638 1.3026 0.35882601
-0.188638 1.25644 0.30133399
-0.20084301 1.29936 0.33193099
-0.188638 1.25227 0.30706
-0.188638 1.21723 0.353515
-0.20084301 1.26771 0.31604201
-0.237905 1.31326 0.35393599
-0.20084301 1.23426 0.346118
-0.188638 1.25227 0.30706
-0.20084301 1.25779 0.33143699
-0.188638 1.21006 0.29394701
-0.188638 1.29886 0.37181801
-0.21833 1.306 0.35393599
-0.188638 1.2658 0.307071
-0.188638 1.2089 0.356033
-0.188638 1.20819 0.292519
-0.210794 1.26843 0.35393599
-0.20084301 1.24224 0.341723
-0.20084301 1.28741 0.288735
-0.188638 1.3026 0.35882601
-0.188638 1.27051 0.35489401
-0.188638 1.2331899 0.31705099
-0.20084301 1.27271 0.31617001
-0.20084301 1.22765 0.28521699
-0.20084301 1.23111 0.28622499
-0.188638 1.2331899 0.31705099
-0.20084301 1.2345099 0.31371999
-0.221231 1.26446 0.35393599
-0.210794 1.26843 0.35393599
-0.237905 1.31326 0.35393599
-0.188638 1.23831 0.374567
-0.188638 1.27264 0.373678
-0.20084301 1.24778 0.352947
-0.23820101 1.28522 0.35393599
-0.188638 1.31262 0.35291401
-0.219938 1.31129 0.35393599
-0.20084301 1.2652299 0.281093
-0.20084301 1.3047 0.29368201
-0.188638 1.23831 0.374567
-0.188638 1.20762 0.34420601
-0.20084301 1.24046 0.35122499
-0.239968 1.29992 0.35393599
-0.188638 1.2658 0.307071
1.6003 -0.65851098 0.22280701
1.40661 -0.65851098 0.43092901
1.33007 -0.65851098 0.37322199
1.4735301 -0.65851098 0.454476
1.6298 -0.65851098 0.25820199
1.55291 -0.79330498 0.43839499
1.6178499 -0.65851098 0.25163299
1.47741 -0.65851098 0.12869699
1.55795 -0.65851098 0.15967301
1.55112 -0.65851098 0.124516
1.58058 -0.65851098 0.17988101
1.62605 -0.79330498 0.342659
1.5913399 -0.65851098 0.188934
1.65802 -0.79330498 0.32958201
1.5398099 -0.65851098 0.118651
1.5700999 -0.65851098 0.13968199
1.60948 -0.79330498 0.35763299
1.6593 -0.79330498 0.29225901
1.44055 -0.65851098 0.42214501
1.61383 -0.79330498 0.35031801
1.66345 -0.79330498 0.211677
1.32838 -0.65851098 0.37351301
1.64938 -0.79330498 0.21469501
1.3496701 -0.65851098 0.37737599
1.3804801 -0.65851098 0.398743
1.5700999 -0.65851098 0.13968199
1.57243 -0.65851098 0.23257899
1.62446 -0.65851098 0.28459701
1.58884 -0.65851098 0.21670701
1.58372 -0.65851098 0.30389699
1.3804801 -0.65851098 0.398743
1.35154 -0.65851098 0.36770201
1.36654 -0.65851098 0.14962
1.45996 -0.65851098 0.100983
1.47118 -0.65851098 0.117412
1.3045 -0.65851098 0.21779799
1.54584 -0.65851098 0.116066
1.50693 -0.65851098 0.38973001
1.55305 -0.65851098 0.14600401
1.58033 -0.65851098 0.18193001
1.33007 -0.65851098 0.37322199
1.4982001 -0.65851098 0.091962896
1.57302 -0.65851098 0.22587
1.36654 -0.65851098 0.14962
1.6394399 -0.79330498 0.183256
1.42036 -0.65851098 0.40304101
1.31043 -0.65851098 0.22988801
1.2903301 -0.65851098 0.265894
1.55182 -0.65851098 0.129366
1.3126301 -0.65851098 0.33314499
1.48078 -0.79330498 0.449312
1.3277 -0.65851098 0.332789
1.5579799 -0.65851098 0.096901901
2.5639801 -0.65851098 0.336155
2.37832 -0.65851098 0.26028699
2.52163 -0.79330498 0.30327299
2.49806 -0.65851098 0.27463201
2.4059401 -0.65851098 0.224768
2.5445199 -0.79330498 0.31146199
2.4077001 -0.65851098 0.162075
2.55077 -0.65851098 0.33534199
2.5773799 -0.65851098 0.39537799
2.44837 -0.65851098 0.212065
2.38993 -0.79330498 0.19107801
2.39782 -0.65851098 0.32140601
2.43274 -0.79330498 0.243334
2.4088199 -0.79330498 0.27820799
2.50301 -0.65851098 0.225567
2.3717699 -0.79330498 0.207481
2.37464 -0.79330498 0.23262601
2.4040401 -0.65851098 0.155258
2.5304599 -0.79330498 0.305316
2.4957399 -0.65851098 0.186434
2.5441599 -0.65851098 0.263329
2.49455 -0.65851098 0.19291601
2.4804201 -0.65851098 0.18783601
2.40641 -0.65851098 0.279039
2.34917 -0.65851098 0.20817199
2.3733201 -0.65851098 0.177489
2.43978 -0.65851098 0.252987
2.4288299 -0.65851098 0.14629
2.34108 -0.65851098 0.26052499
2.5278201 -0.65851098 0.38894099
2.5304599 -0.79330498 0.305316
2.43274 -0.79330498 0.243334
2.51103 -0.79330498 0.294503
2.52284 -0.65851098 0.28741601
2.36695 -0.65851098 0.334903
2.3373301 -0.79330498 0.244058
2.3824699 -0.65851098 0.19188499
2.3943 -0.79330498 0.219451
2.507 -0.79330498 0.28385699
2.3605299 -0.79330498 0.211539
2.41941 -0.65851098 0.177019
2.4033101 -0.65851098 0.18869001
2.41522 -0.65851098 0.33442101
2.4833701 -0.65851098 0.25880301
2.5452399 -0.65851098 0.31462699
2.3961401 -0.65851098 0.284527
2.3749299 -0.65851098 0.186648
2.4627199 -0.65851098 0.342825
2.5181501 -0.79330498 0.27207699
2.5248899 -0.79330498 0.288454
2.50301 -0.65851098 0.225567
2.55831 -0.65851098 0.29756299
2.5218501 -0.79330498 0.32007599
2.4744301 -0.79330498 0.26050201
2.4311299 -0.79330498 0.27702799
2.4181001 -0.65851098 0.30974099
2.3687799 -0.79330498 0.21115901
4.1821699 -3.1122 2.1814401
4.1893601 -3.1122 2.1196799
4.2085199 -3.1122 2.1491301
4.1550102 -3.1122 2.27423
4.2385702 -3.1122 2.3147199
4.2846198 -3.1122 2.3364501
4.2420998 -3.1122 2.3181
4.2562799 -3.1122 2.15045
4.2193298 -3.1122 2.13974
4.1977301 -3.1122 2.3342199
4.1422701 -3.1122 2.2687099
4.1719899 -3.1122 2.13059
4.2751298 -3.1122 2.23786
4.2641401 -3.1122 2.2491801
4.2685399 -3.1122 2.10777
4.2286801 -3.1122 2.3300099
4.2590399 -3.1122 2.2657299
4.1821699 -3.1122 2.1814401
4.2826099 -3.1122 2.16222
4.1711998 -3.1122 2.20506
4.2623901 -3.1122 2.20718
4.27003 -3.1122 2.10689
4.25208 -3.1122 2.2611001
4.20788 -3.1122 2.1472099
4.2080402 -3.1122 2.2235
4.1957402 -3.1122 2.26054
4.1834402 -3.1122 2.26491
4.1998801 -3.1122 2.1316099
4.1957402 -3.1122 2.26054
4.1229 -3.1122 2.2554801
4.1781001 -3.1122 2.1951001
4.2427502 -3.1122 2.1733799
4.2151699 -3.1122 2.3361399
4.2603102 -3.1122 2.35831
4.1824002 -3.1122 2.23789
4.27425 -3.1122 2.19331
4.2711601 -3.1122 2.2840099
4.2041702 -3.1122 2.25471
4.2041702 -3.1122 2.25471
4.1546302 -3.1122 2.29145
4.1422701 -3.1122 2.2687099
4.1262498 -3.1122 2.26489
4.2804599 -3.1122 2.3222401
4.2138901 -3.1122 2.17735
4.2674699 -3.1122 2.3398399
4.20788 -3.1122 2.1472099
4.18537 -3.1122 2.21807
4.1630001 -3.1122 2.1703401
4.2627001 -3.1122 2.36711
4.1108999 -3.1122 2.2091501
4.2603102 -3.1122 2.35831
4.1915302 -3.1122 2.19907
4.25771 -3.1122 2.2811699
4.2427502 -3.1122 2.1733799
4.1666002 -3.1122 2.15411
4.2041702 -3.1122 2.25471
4.2080402 -3.1122 2.2235
4.2018099 -3.1122 2.2867301
4.26404 -3.1122 2.33848
4.27425 -3.1122 2.19331
4.2151699 -3.1122 2.3361399
4.2348399 -3.1122 2.3330801
4.2253199 -3.1122 2.25296
4.2660899 -3.1122 2.21418
4.26929 -3.1122 2.1642799
4.1356702 -3.1122 2.1884601
4.1472101 -3.1122 2.2718501
4.20788 -3.1122 2.1472099
4.1558199 -3.1122 2.2012601
4.2641401 -3.1122 2.2491801
4.1634202 -3.1122 2.24474
4.2627802 -3.1122 2.1312201
4.19767 -3.1122 2.2088001
4.1669502 -3.1122 2.19819
4.1634202 -3.1122 2.24474
4.2253499 -3.1122 2.1789999
4.1504102 -3.1122 2.26109
4.16921 -3.1122 2.1661201
4.2018099 -3.1122 2.2867301
4.2080402 -3.1122 2.2235
4.18537 -3.1122 2.21807
4.0984101 -3.1122 2.22504
4.1449599 -3.1122 2.2370601
4.2253499 -3.1122 2.1789999
4.2280002 -3.1122 2.25734
4.1036701 -3.1122 2.20962
