# .PCD v0.7 - Point Cloud Data file format
VERSION 0.7
FIELDS x y z
SIZE 4 4 4
TYPE F F F
COUNT 1 1 1
WIDTH 1605
HEIGHT 1
VIEWPOINT 0 0 0 1 0 0 0
POINTS 1605
DATA ascii
-1.49883 -0.77774602 2.5033901
-1.3107899 -0.94505501 1.4234101
-0.90664798 -0.79330599 1.6864001
-0.91255301 -0.79330599 1.78309
-1.47405 -0.87217301 1.38688
-1.3107899 -0.93936598 0.92728102
-1.3107899 -0.76481301 1.79532
-1.24481 -0.79330599 2.6954999
-1.3107899 -0.94348502 2.24388
-1.63419 -0.87827301 2.3666301
-1.40399 -0.87217301 2.2393899
-1.39289 -0.94784099 2.7646101
-1.26376 -0.79330599 1.6922801
-1.57662 -0.87827301 0.45718801
-1.46596 -0.87217301 0.233008
-1.09031 -0.94784099 1.80203
-1.44921 -0.87217301 0.96311599
-0.7518 -1.0872999 0.77897799
-1.2815 -0.79011703 1.35251
-1.47365 -0.87827301 2.1146801
-0.75711501 -0.94784099 2.09184
-1.2815 -0.82187998 2.4602399
-0.83880103 -0.94784099 1.63328
-1.29927 -0.94784099 0.85418999
-0.93988198 -0.79330599 1.80106
-1.07928 -0.79330599 1.62672
-1.17256 -0.79330599 2.79866
-0.95849001 -0.94784099 0.93016499
-0.98770201 -0.94784099 1.70222
-1.5283 -0.87217301 0.126738
-1.55995 -0.87827301 0.55236799
-1.5487 -0.87827301 0.117523
-1.5384099 -0.87827301 0.95887601
-1.1905 -0.94784099 0.124164
-1.6609 -0.87827301 1.05933
-1.48405 -0.87827301 2.42961
-1.2815 -0.79739702 1.78511
-0.76655197 -0.79330599 2.8859999
-1.4099 -0.87217301 2.24472
-1.2815 -0.79140699 1.52557
-0.87246603 -0.79330599 1.86025
-1.3107899 -0.90545702 2.0027599
-1.53145 -0.89047801 0.0725177
-0.87319201 -0.79330498 0.15510499
-0.86766499 -0.94784099 1.07271
-0.90281099 -0.94784099 1.61996
-1.14694 -0.79330599 1.7931401
-0.767093 -0.94784099 0.0261312
-1.33 -0.89047801 2.06391
-1.59316 -0.89047801 1.28467
-1.45944 -0.87217301 2.15504
-1.03178 -0.94784099 0.172837
-0.87084103 -0.79330599 1.1182801
-1.2815 -0.85841298 1.34995
-0.72429299 -0.79330498 0.45207801
-1.57961 -0.87827301 1.59308
-1.19051 -0.79330599 1.58764
-1.3107899 -0.92790699 2.0148499
-1.4949501 -0.87217301 1.09981
-1.07152 -0.94784099 0.174079
-0.79827899 -0.94784099 0.24521101
-1.36937 -0.85938102 2.31376
-1.0767601 -0.79330599 1.86954
-1.3107899 -0.80950201 1.20178
-0.95799297 -0.94784099 1.79482
-1.2815 -0.79739702 1.78511
-1.70987 -0.87217301 0.99993098
-1.2815 -0.94168001 1.22821
-1.63291 -0.87217301 0.139569
-1.0846601 -0.94784099 0.83023
-1.6621799 -0.79330599 2.57654
-1.53874 -0.90628701 2.5033901
-1.59726 -0.89047801 1.86235
-1.56754 -0.87827301 1.00407
-1.2815 -0.88715303 1.18703
-0.893767 -0.94784099 0.75568902
-1.16505 -0.79330599 0.42978999
-0.944332 -0.94784099 0.97479302
-1.62299 -0.87827301 2.1979499
-0.92069 -0.94784099 0.73150003
-0.980986 -0.94784099 1.7017699
-1.3107899 -0.83390701 2.3278
-1.60466 -0.77947903 2.5033901
-1.1191 -0.79330599 0.91932899
-1.24117 -0.79330599 2.00229
-1.24139 -0.79330599 1.7736501
-1.45161 -0.87827301 0.69765502
-0.80342299 -0.79330599 1.16947
-1.2815 -0.90310198 0.84993702
-1.59638 -0.88217402 0.96952999
-0.92032498 -0.94784099 1.78833
-1.5805 -0.87827301 1.79044
-1.50254 -0.93158197 2.5033901
-1.38853 -0.87827301 1.29752
-1.6325901 -0.89047801 0.0304334
-1.70116 -0.88270402 2.4557099
-1.3107899 -0.80446601 1.6961499
-1.4008 -0.87827301 0.27922499
-1.50319 -0.87217301 1.32628
-0.73828101 -0.79330498 0.428626
-0.86261499 -0.94784099 0.902013
-1.44732 -0.87827301 1.33859
-1.60024 -0.87217301 1.62054
-1.27709 -0.79330599 2.9035101
-0.89610398 -0.79330498 0.99356502
-1.44486 -0.87217301 2.1689799
-0.819175 -0.94784099 0.34196201
-1.55988 -0.87217301 0.472063
-1.00385 -0.79330599 2.7164199
-1.61072 -0.87217301 2.12152
-1.70945 -0.79330599 2.5724101
-1.3107899 -0.77673101 1.17795
-1.3888201 -0.87217301 1.23769
-1.47059 -0.87217301 2.3370099
-1.0864 -0.94784099 2.8733499
-1.63683 -0.87217301 2.36724
-1.02064 -0.94784099 1.67994
-1.40887 -0.87217301 2.3994999
-1.70779 -0.87217301 2.1656799
-1.52292 -0.87217301 0.753142
-0.79801601 -0.94784099 2.07177
-1.4433399 -0.88906902 0.88214499
-1.1661201 -0.94784099 0.41101101
-1.33143 -0.79330599 3.0076499
-1.05047 -0.79330599 1.64768
-0.97061402 -0.94784099 3.01913
-0.83989501 -0.94784099 0.0749612
-1.57386 -0.87217301 0.55141002
-1.49154 -0.87827301 1.7691
-1.53618 -0.87217301 0.38879201
-1.3107899 -0.94522703 0.138676
-1.59638 -0.88086098 1.66387
-1.67372 -0.87217301 0.72761601
-1.50374 -0.87217301 0.203419
-1.55272 -0.87217301 2.1013
-1.3107899 -0.90643299 1.99763
-1.0013601 -0.79330599 0.29752901
-1.3107899 -0.90982699 0.86083198
-1.15907 -0.79330599 0.46397099
-1.3107899 -0.805691 0.863617
-1.00488 -0.79330599 3.0197599
-1.54175 -0.85386401 2.51088
-1.02051 -0.94784099 0.78346902
-1.5884399 -0.89047801 0.078217
-0.77938497 -0.94784099 0.39579999
-1.3107899 -0.80648601 1.76636
-1.33473 -0.89047801 0.0540886
-1.49419 -0.89047801 1.86974
-1.2815 -0.91562998 0.89472401
-1.48982 -0.87217301 0.45458499
-0.91563398 -0.79330498 0.93269998
-0.71942401 -1.08026 0.891505
-1.44198 -0.87217301 1.1224101
-1.70699 -0.87827301 1.92784
-0.93658298 -0.79330599 1.6884
-1.4283201 -0.89047801 1.2805099
-0.91441298 -0.79330599 3.0141101
-1.52984 -0.85386401 0.063318498
-1.2815 -0.84138501 0.861
-1.49218 -0.87827301 2.0862501
-0.71685302 -0.79330599 0.93537301
-1.2815 -0.85288501 1.36395
-1.24979 -0.79330599 0.87685299
-1.48138 -0.87217301 1.1787601
-1.61822 -0.89047801 2.49524
-1.48125 -0.87217301 0.665272
-0.87741101 -0.94784099 1.72246
-1.63876 -0.87827301 0.94727498
-1.58612 -0.87827301 1.65662
-0.97567701 -0.94784099 2.8707299
-1.44157 -0.87217301 0.89355499
-1.26659 -0.79330599 0.82152498
-1.47419 -0.94784099 2.5955901
-1.2815 -0.82186103 1.51896
-0.95473897 -0.79330599 2.8372099
-1.30059 -0.76476997 0.413003
-1.56533 -0.87217301 0.92129499
-1.19349 -0.79330599 1.87464
-1.2815 -0.81115597 1.27125
-0.77851099 -0.79330599 1.1579601
-1.6051199 -0.93264502 2.56299
-1.50871 -0.89256501 2.5033901
-1.2815 -0.81484801 1.20367
-1.57662 -0.87827301 0.45718801
-0.84465998 -0.79330599 1.80477
-1.60829 -0.89047801 1.9478101
-1.42049 -0.87217301 2.21738
-1.3107899 -0.789783 0.930655
-0.94009501 -0.79330498 0.973993
-1.49914 -0.87827301 1.05326
-0.74179 -0.94784099 2.99389
-1.51752 -0.87217301 2.3118999
-1.47019 -0.87827301 2.3038599
-1.57432 -0.87217301 2.09273
-1.35051 -0.94784099 2.9807899
-1.08033 -0.94784099 0.132402
-0.92393702 -0.79330599 2.9270101
-1.01827 -0.94784099 3.02525
-1.13447 -0.79330599 0.94383001
-1.2815 -0.87807298 1.2856899
-0.871387 -0.79330599 1.79606
-0.76619601 -0.79330498 0.42405701
-1.2815 -0.84807599 0.79395598
-1.20848 -0.94784099 0.26993099
-1.3027101 -0.79330599 2.97984
-0.95798498 -0.94784099 0.83717
-1.5883 -0.87217301 1.7789299
-0.73816502 -1.09349 0.97637898
-1.59638 -0.889507 0.524463
-1.2815 -0.85698301 1.4396
-1.46892 -0.87217301 0.265791
-1.3107899 -0.93305302 0.22149999
-1.63677 -0.87827301 1.91951
-1.1775301 -0.79330498 0.35393
-1.30984 -0.76476997 1.75497
-1.52177 -0.87827301 0.387889
-1.36937 -0.88098902 0.75613999
-1.07767 -0.79330599 0.21706
-1.52133 -0.87217301 0.168823
-1.5051301 -0.880036 0.88214499
-1.21196 -0.79330599 3.00983
-1.22955 -0.94784099 0.239273
-1.30426 -0.94784099 2.9108
-1.2815 -0.89701903 1.35256
-1.2815 -0.83780497 1.78146
-0.95921302 -0.94784099 1.87024
-1.27709 -0.79330599 2.9035101
-1.49796 -0.87827301 0.627621
-0.91204101 -0.94784099 0.93682301
-1.6280299 -0.87217301 2.2731299
-0.91568202 -0.79330498 0.20764799
-1.36426 -0.94784099 2.9856999
-1.15294 -0.94784099 0.39269701
-1.25916 -0.94784099 1.18537
-1.49483 -0.87217301 1.83257
-1.24353 -0.79330599 2.93997
-1.40282 -0.87827301 0.22465099
-1.27858 -0.94784099 2.4063599
-1.55313 -0.87827301 1.98351
-1.51235 -0.87217301 1.19489
-0.80410802 -0.94784099 0.026402799
-1.42443 -0.897677 2.5033901
-1.30007 -0.76476997 0.88587803
-1.4047101 -0.87217301 1.29357
-1.06295 -0.94784099 2.9927499
-1.24783 -0.94784099 0.035028201
-1.44161 -0.87217301 0.39613599
-1.61454 -0.87217301 1.1766599
-1.4941601 -0.87827301 0.52221501
-0.71960503 -1.12541 0.169919
-0.76893699 -0.94784099 0.55646801
-0.81963003 -0.79330599 1.6509
-1.53659 -0.87217301 2.1278901
-1.12553 -0.79330599 2.6819699
-1.23035 -0.79330599 2.6014199
-1.02045 -0.94784099 0.42657301
-1.08722 -0.94784099 0.22913399
-0.87970799 -0.79330599 1.9504
-0.77473497 -0.79330498 0.109358
-0.98178399 -0.94784099 0.110584
-1.26151 -0.79330599 3.00969
-0.92596 -0.79330498 0.37587199
-0.91378599 -0.94784099 0.33634201
-1.57333 -0.87217301 1.99664
-0.95694602 -0.94784099 0.768736
-0.96714902 -0.79330599 2.98999
-1.30946 -0.94784099 0.141552
-1.52789 -0.87217301 0.25086901
-1.42602 -0.87827301 0.42721099
-1.2815 -0.87835097 1.31112
-1.61102 -0.88273901 2.1124599
-1.2815 -0.81014699 0.86462998
-1.48572 -0.87827301 0.41693699
-0.74159002 -0.79330498 0.18889
-1.69402 -0.87830502 1.87754
-1.33473 -0.85386401 1.99387
-1.36937 -0.87101197 0.227348
-0.73329997 -0.94784099 2.07201
-1.20815 -0.79330599 1.93126
-1.39441 -0.94784099 2.8880501
-0.75610799 -0.79330599 2.8882201
-1.20333 -0.79330599 1.52604
-1.68648 -0.87217301 2.198
-1.668 -0.87827301 1.98894
-0.80777198 -0.79330599 2.971
-1.54664 -0.87827301 0.85479701
-1.57307 -0.94784099 2.61973
-1.35983 -0.89047801 0.248603
-0.850128 -0.94784099 0.363801
-1.48672 -0.87217301 1.17869
-1.41488 -0.87217301 0.92910802
-1.54215 -0.87217301 2.4480801
-1.02273 -0.79330599 1.83384
-1.20553 -0.79330599 2.97455
-1.49695 -0.87827301 2.36358
-1.1036299 -0.94784099 2.9202299
-0.98452902 -0.94784099 1.61248
-1.1027 -0.79330599 2.6889501
-1.6156501 -0.87217301 1.87999
-1.68302 -0.87217301 2.2693
-1.16128 -0.79330498 0.29253799
-1.5478801 -0.85020298 2.5260701
-1.17676 -0.94784099 0.235984
-1.51517 -0.85386401 2.51405
-1.10028 -0.94784099 2.7480299
-1.24088 -0.79330599 2.5971701
-1.3107899 -0.92388999 2.3040299
-1.3107899 -0.91339999 2.39733
-1.52301 -0.87217301 0.20004
-0.924528 -0.79330599 2.8728199
-0.991476 -0.94784099 0.23146801
-1.2815 -0.90097898 2.41995
-1.41512 -0.87217301 0.148864
-1.71038 -0.87827301 1.95208
-1.14849 -0.94784099 0.32294601
-0.81129599 -0.94784099 2.9874799
-1.08365 -0.94784099 0.224998
-1.6324 -0.87217301 2.3338301
-0.97394902 -0.94784099 2.9118199
-1.3107899 -0.90955001 0.90530801
-1.52514 -0.89047801 1.08316
-1.40658 -0.87827301 0.192136
-0.99571103 -0.94784099 2.9071
-1.66438 -0.87217301 1.23805
-1.31801 -0.89047801 1.251
-0.86415797 -0.79330498 0.13483199
-1.34645 -0.89047801 0.89597702
-1.06077 -0.79330599 1.61457
-1.55962 -0.89805698 2.5033901
-0.83624101 -0.79330599 1.56118
-1.20889 -0.79330599 2.9832001
-1.59646 -0.87217301 2.3713801
-1.55313 -0.87827301 1.98351
-0.97567701 -0.94784099 2.8707299
-1.45478 -0.85386401 0.052296501
-1.36691 -0.89047801 0.92622799
-1.2815 -0.82657599 1.80314
-1.6253099 -0.87217301 2.40611
-1.67627 -0.87827301 2.3180399
-1.70427 -0.87827301 2.1039801
-0.89291501 -0.79330498 0.953722
-1.05248 -0.79330599 1.89143
-1.03412 -0.94784099 0.21019299
-1.0027699 -0.79330599 1.78107
-0.765769 -0.79330599 2.8947699
-1.27213 -0.79330599 2.66348
-1.53154 -0.87217301 0.667202
-1.48483 -0.87827301 1.20754
-1.2815 -0.930179 1.23962
-1.3107899 -0.8193 1.50473
-0.900249 -0.94784099 0.192727
-1.57793 -0.87827301 2.28127
-1.36834 -0.85386401 2.01794
-0.79609501 -0.79330599 1.11185
-1.61633 -0.87217301 0.12423
-1.47306 -0.85386401 0.0815937
-0.97589201 -0.79330599 2.8419001
-1.2815 -0.77010798 1.9893301
-1.4274 -0.87217301 1.08688
-1.3107899 -0.90364999 2.4259801
-0.81403399 -0.94784099 0.96929199
-1.20358 -0.79330599 3.02719
-1.51152 -0.87827301 1.51201
-1.3107899 -0.77647603 2.49913
-1.03127 -0.94784099 1.7633899
-0.89866602 -0.94784099 0.48565
-1.29132 -0.76476997 2.4520099
-1.2815 -0.83879602 1.38502
-1.45599 -0.87217301 1.14612
-1.5371799 -0.87827301 1.30575
-1.5704 -0.87827301 1.09219
-1.56861 -0.87827301 1.02214
-1.2815 -0.90333599 0.89747298
-1.42369 -0.87827301 0.78074801
-1.51025 -0.87217301 1.16583
-0.75453103 -0.94784099 0.55078298
-0.794797 -0.94784099 0.94297898
-0.84100699 -0.79330599 1.71708
-1.3761899 -0.87217301 0.94164002
-0.99082899 -0.94784099 0.75799799
-1.70465 -0.87217301 2.1837499
-1.3107899 -0.78488898 1.97378
-0.79450202 -0.79330599 2.9396701
-1.03961 -0.94784099 1.75184
-0.80639201 -0.79330498 0.26548299
-1.2133501 -0.79330599 2.0945401
-1.43567 -0.94784099 2.7597699
-1.2815 -0.81244898 1.29308
-1.42816 -0.85386401 2.4867599
-1.65139 -0.89047801 2.4861
-1.46249 -0.87827301 0.308166
-1.4595 -0.87217301 2.34007
-1.23729 -0.79330599 1.86404
-1.40988 -0.87217301 0.28791699
-1.0961699 -0.94784099 2.77161
-1.45278 -0.87217301 2.3817699
-0.81958598 -0.94784099 1.02773
-1.3107899 -0.81108701 1.9540499
-1.00455 -0.94784099 1.75963
-1.69057 -0.87827301 0.58011001
-1.43182 -0.87827301 1.35015
-1.5962 -0.85020298 2.50739
-1.30237 -0.94784099 1.12305
-1.67594 -0.87827301 1.73827
-0.88096499 -0.79330498 0.28735
-1.05085 -0.94784099 1.56883
-1.08033 -0.94784099 0.132402
-1.1655 -0.79330599 1.86555
-1.6709501 -0.85386401 0.0516074
-0.86781198 -0.79330498 0.96937901
-1.67283 -0.87217301 1.73085
-1.24705 -0.94784099 1.49484
-0.75610799 -0.79330599 2.8882201
-1.6257 -0.87827301 1.71872
-1.60974 -0.89047801 0.62780398
-1.03979 -0.79330599 0.29286
-1.20477 -0.79330599 0.906896
-0.89777201 -0.79330498 0.16583399
-0.73954898 -1.13034 0.48901999
-1.70868 -0.87827301 2.0606999
-1.7043999 -0.87217301 1.71015
-1.1240799 -0.79330599 1.85256
-1.56015 -0.93241 2.56299
-1.29118 -0.79330599 2.97802
-1.59638 -0.89036101 2.2292299
-0.85373098 -0.94784099 1.55752
-0.73696601 -0.94784099 2.4605899
-1.2815 -0.85957402 0.804102
-1.64328 -0.87827301 2.19554
-1.56982 -0.87217301 0.70196998
-1.28983 -0.76476997 1.7658401
-1.25384 -0.94784099 2.64241
-1.2815 -0.81406301 1.4858299
-1.68334 -0.87827301 1.93376
-0.74512601 -1.1274101 0.57824802
-1.2815 -0.899777 1.41462
-1.53813 -0.91610497 2.5033901
-1.21805 -0.94784099 1.3247499
-1.1169699 -0.94784099 0.121279
-1.70825 -0.89047801 0.065686099
-1.40804 -0.94784099 2.70874
-1.40455 -0.82353997 2.5033901
-1.5037 -0.88528699 1.4841501
-1.21299 -0.79330599 0.85571897
-1.4180501 -0.87217301 2.2437401
-1.2815 -0.92406201 2.3879001
-1.42794 -0.80991203 2.5033901
-1.4526 -0.87217301 1.26809
-0.837861 -0.94784099 1.60689
-1.6117001 -0.87217301 2.1313601
-1.47928 -0.87971699 2.2709301
-1.00378 -0.94784099 0.37190801
-1.59638 -0.88825399 2.2358999
-0.77055699 -0.94784099 2.0997601
-1.63467 -0.87217301 2.1284599
-1.65687 -0.87827301 2.2974801
-1.70865 -0.87827301 2.1459799
-1.33478 -0.94784099 2.92904
-1.04796 -0.94784099 0.237847
-1.1875499 -0.94784099 1.34902
-1.53364 -0.88720101 0.107288
-0.85618901 -0.94784099 3.0074999
-1.2815 -0.94298297 0.0410165
-1.22457 -0.79330599 0.93397999
-1.63378 -0.87217301 0.53488898
-1.27731 -0.94784099 0.080344804
-1.58404 -0.87217301 2.2774601
-1.27179 -0.94784099 1.45628
-1.0369999 -0.79330599 2.9755599
-1.43217 -0.87217301 2.0931799
-0.94902802 -0.94784099 0.19697
-0.89496797 -0.94784099 1.64851
-0.74723703 -0.0147683 0.39625299
-0.71778601 0.120394 0.42190999
-0.72779202 0.33905599 0.37722501
-0.842475 0.80737001 0.063265197
-0.80922699 0.791951 0.124445
-0.747298 0.80737001 0.123792
-0.72341102 0.0544868 0.42190999
-0.733917 0.18778101 0.28765801
-0.74547797 0.0209787 0.42190999
-0.901784 0.80737001 0.081307299
-0.89545298 0.80737001 0.101381
-0.72373801 0.29079601 0.42190999
-0.74723703 -0.0147683 0.39625299
-0.73594803 0.181389 0.42190999
-0.89427203 0.791951 0.073159702
-0.73979402 0.19278499 0.42190999
-0.83425301 0.80737001 0.109054
-0.89427203 0.791951 0.073159702
-0.82222301 0.80737001 0.097671203
-0.809856 0.791951 0.10271
-0.72952098 0.33887199 0.39730901
-0.72728801 0.043495599 0.42190999
-0.85652399 0.791951 0.08721
-0.719598 0.80737001 0.149526
-0.73765397 0.19593599 0.28765801
-0.71428001 0.144091 0.28765801
-0.73163998 -0.0148831 0.37130001
-0.850052 0.80737001 0.114275
-0.86232603 0.80737001 0.087772697
-0.82731301 0.791951 0.095966898
-0.80922699 0.791951 0.124445
-0.72103202 0.137347 0.42190999
-0.75715202 0.80737001 0.142359
-0.80945498 0.791951 0.113269
-0.71645403 0.80737001 0.156482
-0.728953 -0.0148831 0.35359699
-0.71677297 0.34181499 0.40636399
-0.82222301 0.80737001 0.097671203
-0.82750398 0.80737001 0.093674503
-0.72078699 0.26231501 0.42190999
-0.72765398 0.064964399 0.28765801
-0.88081402 0.80737001 0.0556206
-0.84665298 0.791951 0.092369497
-0.861027 0.80737001 0.069576398
-0.73236698 0.791951 0.150591
-0.73948902 0.80737001 0.15071701
-0.72284698 0.036264099 0.42190999
-0.73156899 0.25035799 0.42190999
-0.72552699 0.34310499 0.40877801
-0.82731301 0.791951 0.095966898
-0.74496597 0.17201 0.42190999
-0.82928002 0.80737001 0.068152003
-0.74547797 0.0209787 0.42190999
-0.731534 0.124975 0.42190999
-0.80922699 0.791951 0.124445
-0.88895297 0.80737001 0.0443203
-0.74445301 0.144581 0.42190999
-0.72382998 -0.0148831 0.375067
-0.71894801 -0.0148831 0.34784999
-0.73948902 0.80737001 0.15071701
-0.86600202 0.791951 0.085692301
-0.72728801 0.043495599 0.42190999
-0.71611297 0.14018799 0.42190999
-0.73271298 0.229708 0.42190999
-0.74769002 -0.0148831 0.386098
-0.718436 0.076026 0.42190999
-0.82190698 0.80737001 0.098626196
-0.718436 0.076026 0.42190999
-0.842475 0.80737001 0.063265197
-0.72535801 0.120347 0.28765801
-0.84501499 0.80737001 0.059096899
-0.86127597 0.80737001 0.0582029
-0.71555501 0.0445497 0.28765801
-0.90207702 0.791951 0.089790203
-0.861027 0.80737001 0.069576398
-0.81521201 0.80737001 0.082081497
-0.87115902 0.80737001 0.0981846
-0.82731301 0.791951 0.095966898
-0.90207702 0.791951 0.089790203
-0.73476899 0.00189414 0.41975799
-0.74406803 -0.0148831 0.39131701
-0.73795301 0.80737001 0.142131
-0.724774 0.100824 0.28765801
-0.74881101 0.075842597 0.42190999
-0.72803301 0.33905599 0.34777501
-0.719459 0.35612899 0.41988099
-0.71677297 0.34181499 0.40636399
-0.80548799 0.80737001 0.046435699
-0.72033101 0.285476 0.42190999
-0.76977199 1.53285 0.35393599
-0.74356699 1.32368 0.35393599
-0.89825201 1.51603 0.35393599
-0.76116502 1.0899301 0.35393599
-0.72109801 1.20761 0.35393599
-0.79519999 1.308 0.35393599
-0.72177702 1.23926 0.35393599
-0.73482698 1.29436 0.35393599
-0.78628498 1.52575 0.35393599
-0.75896698 1.32156 0.35393599
-0.73826098 1.52871 0.35393599
-0.78339303 1.0335799 0.35393599
-0.773076 1.5498 0.35393599
-0.780065 1.08743 0.35393599
-0.81727803 1.09276 0.35393599
-0.803855 1.22105 0.35393599
-0.75520301 1.17452 0.35393599
-0.76197302 0.966919 0.35393599
-0.75962597 1.4493001 0.35393599
-0.80906099 1.2635601 0.35393599
-0.76076198 1.13219 0.35393599
-0.71982503 1.33778 0.35393599
-0.83409101 1.5538599 0.35393599
-0.80763102 1.6121401 0.35393599
-0.913239 1.56391 0.35393599
-0.71899903 1.63592 0.35393599
-0.732732 1.44627 0.35393599
-0.81188202 1.57976 0.35393599
-0.81923997 1.4674 0.35393599
-0.92324001 1.63814 0.35393599
-0.90903902 1.62967 0.35393599
-0.876643 1.5748 0.35393599
-0.83660501 1.54932 0.35393599
-0.808586 1.10276 0.35393599
-0.721623 1.25249 0.35393599
-0.72025698 1.47841 0.35393599
-0.719024 1.07982 0.35393599
-0.76977199 1.53285 0.35393599
-0.85935199 1.56528 0.35393599
-0.7748 1.05457 0.35393599
-0.75357401 1.08363 0.35393599
-0.749798 1.61641 0.35393599
-0.72990298 1.563 0.35393599
-0.729213 1.36375 0.35393599
-0.78675097 1.27764 0.35393599
-0.78788501 1.27487 0.35393599
-0.785146 1.0220799 0.35393599
-0.72623402 1.51167 0.35393599
-0.78081399 1.1424299 0.35393599
-0.74187398 1.16492 0.35393599
-0.79744399 1.56894 0.35393599
-0.773076 1.5498 0.35393599
-0.78116602 1.0096101 0.35393599
-0.80566102 1.48921 0.35393599
-0.89104402 1.62904 0.35393599
-0.79895699 1.15821 0.35393599
-0.72586203 1.24543 0.35393599
-0.85917902 1.60355 0.35393599
-0.78315997 1.03672 0.35393599
-0.77154499 1.25018 0.35393599
-0.776941 1.28696 0.35393599
-0.75579298 1.17554 0.35393599
-0.72318798 1.53215 0.35393599
-0.78214997 1.1136 0.35393599
-0.78411102 1.17501 0.35393599
-0.84244698 1.5918 0.35393599
-0.82326102 0.95773101 0.35393599
-0.77906698 1.5243599 0.35393599
-0.79142803 1.30112 0.35393599
-0.78837901 1.24546 0.35393599
-0.732732 1.44627 0.35393599
-0.740794 1.14114 0.35393599
-0.78234601 1.09359 0.35393599
-0.93225598 1.6138 0.35393599
-0.90912598 1.57732 0.35393599
-0.825387 1.4984601 0.35393599
-0.78866202 1.48927 0.35393599
-0.772385 1.31929 0.35393599
-0.78296298 1.26964 0.35393599
-0.93225598 1.6138 0.35393599
-0.74331498 1.24791 0.35393599
-0.73419797 1.4072599 0.35393599
-0.80957103 1.15739 0.35393599
-0.895428 1.55618 0.35393599
-0.74324501 1.06411 0.35393599
-0.79143202 1.25056 0.35393599
-0.73893702 1.3969899 0.35393599
-0.84078503 1.00735 0.35393599
-0.77906698 1.5243599 0.35393599
-0.84099501 1.06494 0.35393599
-0.79247999 1.2729599 0.35393599
-0.91054302 1.61984 0.35393599
-0.732732 1.44627 0.35393599
-0.73553598 1.20075 0.35393599
-0.83342499 1.50402 0.35393599
-0.77129698 1.2824399 0.35393599
-0.73231101 1.54105 0.35393599
-0.83406401 1.48253 0.35393599
-0.74819201 1.0175 0.35393599
-0.76912302 1.17969 0.35393599
-0.75313902 0.99902898 0.35393599
-0.71911597 1.54757 0.35393599
-0.836932 1.57763 0.35393599
-0.84821999 1.59121 0.35393599
-0.71542501 1.32794 0.35393599
-0.74819201 1.0175 0.35393599
-0.74607003 1.33017 0.35393599
-0.895428 1.55618 0.35393599
-0.75576001 1.2932301 0.35393599
-0.91317397 1.59254 0.35393599
-0.74572098 1.43417 0.35393599
-0.71982503 1.33778 0.35393599
-0.73026198 1.08322 0.35393599
-0.911129 1.59407 0.35393599
-0.87798798 1.52904 0.35393599
-0.76532 1.58715 0.35393599
-0.82160801 1.03812 0.35393599
-0.75313902 0.99902898 0.35393599
-0.911129 1.59407 0.35393599
-0.847911 1.61728 0.35393599
-0.79519999 1.308 0.35393599
-0.77004403 1.2368 0.35393599
-0.73553598 1.20075 0.35393599
-0.76609898 0.97576499 0.35393599
-0.74285102 1.5767601 0.35393599
-0.73591202 0.99857903 0.35393599
-0.79995298 1.06977 0.35393599
-0.80378699 1.1618 0.35393599
-0.768722 1.27508 0.35393599
-0.860102 1.51109 0.35393599
-0.785146 1.0220799 0.35393599
-0.74819201 1.0175 0.35393599
-0.80338502 1.23566 0.35393599
-0.76912302 1.17969 0.35393599
-0.74187398 1.16492 0.35393599
-0.91054302 1.61984 0.35393599
-0.81896698 0.94194102 0.35393599
-0.84078503 1.00735 0.35393599
-0.77606398 1.17737 0.35393599
-0.89669198 1.54535 0.35393599
-0.863572 1.54663 0.35393599
-0.84222901 1.61746 0.35393599
-0.79398203 1.07074 0.35393599
-0.731547 1.61492 0.35393599
-0.84399498 1.6023099 0.35393599
-0.78339303 1.0335799 0.35393599
-0.76535201 1.457 0.35393599
-0.77442998 1.10989 0.35393599
-0.78028399 1.18317 0.35393599
-0.84442103 1.55518 0.35393599
-0.85062099 1.51556 0.35393599
-0.73465103 1.01512 0.35393599
-0.879489 1.59193 0.35393599
-0.79398203 1.07074 0.35393599
-0.75086898 1.57467 0.35393599
-0.72090799 1.52441 0.35393599
-0.72906202 1.25211 0.35393599
-0.75313902 0.99902898 0.35393599
-0.78075999 1.2720701 0.35393599
-0.730039 1.51361 0.35393599
-0.77764601 1.02729 0.35393599
-0.76446003 1.59911 0.35393599
-0.74814498 1.06905 0.35393599
-0.79459 1.05466 0.35393599
-0.76197302 0.966919 0.35393599
-0.78339303 1.0335799 0.35393599
-0.84442103 1.55518 0.35393599
-0.849114 1.57662 0.35393599
-0.72318798 1.53215 0.35393599
-0.75962597 1.4493001 0.35393599
-0.766949 1.55823 0.35393599
-0.77591503 1.14484 0.35393599
-0.73968899 1.19677 0.35393599
-0.74814498 1.06905 0.35393599
-0.75450402 1.39788 0.35393599
-0.75665599 1.50754 0.35393599
-0.748887 1.1316 0.35393599
-0.91317397 1.59254 0.35393599
-0.72343498 1.41878 0.35393599
-0.74101502 1.3247401 0.35393599
-0.77784801 1.36953 0.35393599
-0.79995298 1.06977 0.35393599
-0.75908703 1.2761101 0.35393599
-0.87862498 1.56967 0.35393599
-0.84925902 1.48906 0.35393599
-0.78837901 1.24546 0.35393599
-0.80906099 1.2635601 0.35393599
-0.76446003 1.59911 0.35393599
-0.76569498 1.26484 0.35393599
-0.73465103 1.01512 0.35393599
-0.729213 1.36375 0.35393599
-0.78296298 1.26964 0.35393599
-0.773462 1.0914 0.35393599
-0.79895699 1.15821 0.35393599
-0.72425199 1.56177 0.35393599
-0.80763102 1.6121401 0.35393599
-0.72350299 1.22013 0.35393599
-0.80066597 1.4500999 0.35393599
-0.78078198 1.35346 0.35393599
-0.83660501 1.54932 0.35393599
-0.731547 1.61492 0.35393599
-0.80066597 1.4500999 0.35393599
-0.783858 1.56346 0.35393599
-0.71793503 2.3328099 0.35393599
-0.74290502 2.30124 0.35393599
-0.808002 2.3457699 0.35393599
-0.80840099 2.2492299 0.35393599
-0.819197 2.2299199 0.35393599
-0.74290502 2.30124 0.35393599
-0.81538498 2.3157899 0.35393599
-0.83708698 2.37148 0.35393599
-0.72820401 2.3297999 0.35393599
-0.84052598 2.2736199 0.35393599
-0.74109501 2.3280399 0.35393599
-0.807262 2.33971 0.35393599
-0.82633799 2.31317 0.35393599
-0.853504 2.3571401 0.35393599
-0.80494601 2.33887 0.35393599
-0.84052598 2.2736199 0.35393599
-0.77072197 2.30212 0.35393599
-0.83025903 2.2604699 0.35393599
-0.819197 2.2299199 0.35393599
-0.83708698 2.37148 0.35393599
-0.84052598 2.2736199 0.35393599
-0.74419099 2.3173599 0.35393599
-1.61684 3.1122 0.461326
-1.49445 3.1122 0.22887801
-1.0099699 3.0466101 1.23151
-1.53346 3.1122 0.63717097
-1.06903 3.1122 2.98332
-1.29693 3.0466101 0.28234801
-0.75047898 3.0466101 0.0871718
-1.70269 3.0864401 1.1669101
-1.24664 3.1122 1.20382
-1.23812 3.1122 2.8525801
-1.19822 3.0864401 0.53143501
-1.51986 3.1122 1.11897
-1.45152 3.1122 0.20210101
-0.717816 3.0864401 0.63281
-1.56366 3.1122 0.396218
-1.00431 3.1122 1.90089
-0.76935601 3.0710199 0.90023899
-0.85647702 3.0710199 0.92244101
-1.25379 3.0710199 0.96217799
-0.85451603 3.0864401 0.90679598
-0.953399 3.1122 1.93111
-0.970608 3.1122 0.212283
-1.08354 3.0710199 1.1397901
-0.88778001 3.1122 0.044661801
-0.71418202 3.0864401 0.45131499
-1.3962899 3.1122 0.891837
-1.2344199 3.0864401 1.1273299
-0.94112998 3.0864401 0.52522498
-1.66922 3.0710199 0.97120398
-1.01607 3.1122 1.92869
-0.82718098 3.1122 0.47830901
-1.23353 3.0864401 0.030712999
-1.21922 3.0864401 0.66024899
-1.38778 3.1122 1.87467
-1.56475 3.0466101 0.28196701
-1.28523 3.1122 0.45316401
-1.42919 3.0864401 0.64572197
-0.77293402 3.0864401 0.47765699
-1.09524 3.0864401 0.28225601
-1.6837 3.0186801 0.76889902
-1.27842 3.1122 1.18678
-1.44682 2.9055901 0.35393599
-1.21527 3.1122 0.72365803
-1.1092 3.1122 0.027619099
-1.42606 3.1122 0.531546
-1.60475 3.1122 0.49074501
-1.0792201 2.87164 0.76889902
-0.85795701 3.1122 2.8793299
-1.65109 3.0710199 0.97246701
-1.03254 3.1122 0.53704
-1.14854 3.1122 0.96015298
-1.18357 3.1122 0.91652799
-1.23994 3.0710199 0.96137899
-1.52703 3.0864401 0.66944498
-0.80208898 3.1122 0.024742801
-1.1932 3.0655401 0.79865301
-1.1934201 3.0710199 0.99909103
-1.09894 3.1122 2.9630301
-1.37102 3.0864401 0.44140401
-1.38807 3.0864401 0.26367199
-1.49031 3.0864401 0.471255
-1.24028 3.1122 2.81074
-0.93040198 3.1122 2.20801
-1.45491 3.0864401 0.52747601
-0.99041998 3.1122 1.51343
-1.6989599 3.0710199 0.79883999
-1.58123 3.0864401 0.513924
-1.2204 3.0864401 0.068885103
-1.41177 2.93697 0.35393599
-0.99016899 3.1122 1.82531
-1.22771 3.0864401 0.91066498
-1.45867 3.0864401 0.52046603
-0.95014399 3.1122 0.213992
-1.6115299 3.0864401 0.30229199
-1.41246 3.0864401 0.28884801
-1.42155 3.0864401 0.83455002
-0.71770698 3.0864401 0.712376
-1.0700999 3.0710199 1.17309
-0.86217999 3.1122 0.52781099
-1.0784301 3.1122 2.8556099
-0.818268 3.1122 0.201453
-1.37919 3.1122 2.7821701
-1.66619 3.0864401 1.05032
-0.75047898 3.0466101 0.198138
-1.45762 3.0864401 0.561104
-0.96444303 3.0864401 0.128574
-1.60689 3.0864401 0.81231803
-0.79301298 3.0864401 0.230967
-1.27224 3.0466101 0.190165
-1.22405 3.0710199 1.18859
-0.82392699 3.0710199 0.89707899
-1.3995399 3.1122 0.33007899
-1.01194 3.1122 2.86411
-1.04094 3.1122 3.0095201
-0.85757297 3.0864401 0.574166
-1.5766701 3.1122 0.92760402
-1.3049099 3.0864401 0.29061401
-1.29081 3.1122 0.378088
-1.58569 3.0864401 0.67325902
-1.62893 3.0864401 0.82903498
-0.98674798 3.1122 1.53845
-0.92786199 3.1122 0.049722198
-1.66027 3.1122 1.2042
-0.930673 3.0864401 0.34213799
-1.12655 3.0864401 1.06073
-1.6482 3.0864401 0.857921
-0.96257901 3.1122 0.35572001
-1.59913 3.0864401 1.15343
-1.19628 3.0864401 0.592399
-1.5949399 3.0864401 0.582497
-1.23602 3.0864401 0.75086701
-0.733459 3.0864401 0.92925102
-1.06261 3.1122 1.88078
-0.71697003 3.0466101 0.048115399
-1.66923 3.0478599 1.20292
-1.67632 3.1122 1.07119
-1.04506 3.0864401 0.32405999
-0.94464397 3.1122 0.49789101
-1.62413 3.0710199 0.877693
-0.92983299 3.1122 2.20941
-1.59129 3.0864401 0.73753798
-1.69769 3.0864401 0.851623
-0.75188899 3.1122 0.44937199
-1.11369 3.1122 0.918621
-1.1747299 3.1122 1.02548
-1.68545 3.1122 1.01341
-1.3395801 3.1122 0.50581199
-1.25205 3.0710199 0.89482498
-1.64566 3.1122 0.43263999
-0.84868097 3.1122 0.39566699
-0.85426199 3.1122 2.7678599
-1.56564 3.1122 0.73603398
-1.25692 3.1122 1.1875401
-1.0208499 3.0864401 0.34280199
-1.4507999 3.1122 0.58289999
-1.67662 3.1122 0.40764999
-1.23651 3.0864401 0.44700199
-1.37439 3.0864401 0.58032101
-0.74605799 3.0466101 0.26908901
-0.84494102 3.0864401 0.178803
-1.47068 3.1122 1.865
-1.32901 3.0864401 0.61584997
-1.35782 2.87568 0.76889902
-1.6864001 3.1122 0.26449701
-1.46188 3.0864401 0.90008098
-0.87113398 3.1122 0.86832303
-1.69462 3.1122 0.77266598
-0.73777801 3.1122 0.89986998
-0.733226 3.1122 0.675192
-0.919774 3.1122 1.86751
-1.11367 3.1122 1.38007
-1.65997 3.0710199 0.86765403
-1.40483 3.0864401 0.59295201
-1.34095 3.0864401 0.44477901
-0.79453701 3.1122 0.71728998
-1.14426 3.0710199 0.95410699
-0.832766 3.0710199 0.89078498
-1.45874 3.0864401 0.53529203
-1.38086 3.1122 0.473775
-1.1636699 3.1122 0.658768
-0.96709198 3.1122 0.089250699
-1.4279701 3.1122 0.62995899
-0.90822101 3.0864401 0.063011497
-0.94267398 3.1122 1.94982
-1.10129 3.0864401 1.1009099
-1.14534 3.1122 1.00011
-0.99248898 3.0466101 0.339885
-1.45406 3.0100501 0.35393599
-1.56943 3.0864401 0.31551501
-1.24152 3.0466101 0.218814
-1.02484 3.1122 1.4928401
-1.55767 3.0710199 1.13766
-0.72275102 3.0466101 0.16805799
-0.76339501 3.0864401 0.0121364
-1.09665 3.1122 1.9108599
-1.51528 3.1122 0.72653502
-0.97067899 3.0864401 0.188618
-0.98303097 3.1122 2.85448
-1.31678 3.1122 1.9596601
-0.80912101 3.0710199 0.96872199
-1.2979 3.0864401 0.69640601
-1.03229 3.0864401 0.26158601
-1.5502599 3.0864401 1.12507
-1.1291 2.90295 0.76889902
-0.86596698 3.0864401 0.060359601
-1.23659 3.1122 0.997495
-1.01668 3.1122 0.0761052
-1.30018 2.89031 0.76889902
-1.08183 3.0864401 0.49895799
-0.92273903 3.1122 3.0097799
-1.1393501 3.1122 1.3219
-1.4039201 3.0466101 0.270495
-0.95945001 3.1122 0.35698399
-1.61045 3.0466101 1.2224
-1.0680799 3.1122 1.74143
-1.3995399 3.0864401 0.30422401
-1.40606 3.1122 0.72971702
-1.284 3.1122 0.966748
-1.20742 3.0864401 1.0913399
-1.4802001 2.89149 0.76889902
-1.70864 3.1122 0.326619
-1.46626 3.1122 0.90051198
-1.56346 3.0466101 0.26569501
-0.82636201 3.1122 0.87577701
-1.21981 2.9681201 0.76889902
-1.41303 3.0864401 0.49230099
-1.00108 3.1122 1.9304301
-0.737436 3.0864401 0.38029799
-1.336 3.0466101 0.197629
-1.12159 3.1122 1.34412
-1.27791 3.0864401 0.79514003
-0.86956698 3.0864401 0.24988601
-1.59664 3.0710199 0.968225
-1.65607 3.1122 0.97097802
-0.82139599 3.1122 0.56318402
-1.00156 3.03738 0.35393599
-1.09074 3.1122 2.8905499
-0.78636098 3.0864401 0.34764701
-1.1682301 3.0864401 0.40394399
-0.88170499 3.0864401 0.0167438
-1.28754 3.1122 0.459528
-1.53997 3.1122 0.41136101
-1.12832 3.0466101 0.258488
-1.31761 3.1122 1.96224
-1.06013 3.0466101 0.28092799
-0.905563 3.0710199 1.19906
-1.64071 3.0710199 0.93939
-1.07436 3.0466101 0.2138
-0.80997002 3.0864401 0.64084297
-1.22858 3.1122 0.75694698
-1.05151 3.1122 0.050941799
-1.0874 3.1122 2.8673
-1.33351 3.1122 0.240077
-1.23926 3.0864401 0.85760599
-1.5320801 3.0864401 0.78093898
-0.90352899 3.1122 2.9873199
-1.67782 3.1122 2.6059799
-1.62466 3.0864401 1.17094
-1.11882 3.0864401 0.207499
-1.63814 3.0864401 0.917032
-1.23762 3.1122 1.14501
-1.38432 3.0864401 0.86158299
-0.99959397 3.0466101 0.28009501
-1.1816601 2.90574 0.76889902
-1.46992 3.0864401 0.72915798
-0.89701402 3.0864401 0.91439003
-1.02772 3.1122 2.9169199
-1.3539 3.1122 1.93367
-1.5266 3.1122 0.73565501
-1.7088 3.1122 0.639723
-0.76639003 3.0864401 0.62308103
-1.15695 3.0864401 0.92275
-0.95113701 3.1122 2.92295
-1.53993 3.1122 0.294617
-1.41241 3.1122 2.79684
-1.19622 3.0710199 0.900554
-1.13775 2.98614 0.35393599
-1.37638 3.0864401 0.64001298
-1.2859 3.0864401 0.70661497
-1.4485 3.0864401 0.21259201
-0.84445602 3.0864401 0.889211
-0.74391699 3.0864401 0.87712401
-1.25559 3.1122 2.8350599
-1.43343 2.9558201 0.35393599
-1.69929 3.0864401 0.66469598
-1.52653 3.0864401 0.51445103
-1.6706001 3.04038 0.76889902
-1.5247999 3.1122 1.10785
-1.0118001 3.0864401 0.54242098
-0.76069099 3.0466101 0.028469101
-0.91631103 3.1122 2.19046
-1.05418 3.0864401 0.084386997
-0.82392699 3.0710199 0.89707899
-1.3539 3.1122 1.93367
-0.91289699 3.1122 2.0127399
-1.53993 3.0710199 0.91043597
-1.1278501 3.0455899 0.35393599
-1.26695 3.0067 0.35393599
-1.5939699 3.1122 1.19867
-1.50456 3.0265801 0.76889902
-1.64566 3.1122 0.43263999
-0.72772598 3.1122 2.7316799
-1.6865 3.0864401 1.06659
-1.0782599 3.0710199 1.16617
-1.12163 3.0864401 0.22963101
-1.27425 2.8722999 0.76889902
-1.54582 3.1122 0.29601201
-1.4275301 2.89744 0.35393599
-1.20453 3.1122 1.89818
-1.24169 3.0466101 0.79590601
-0.99171197 3.1122 0.53589302
-0.92014998 3.0864401 0.60061598
-0.74817199 3.1122 0.505229
-0.79676503 3.1122 0.023087701
-1.37403 3.1122 0.552948
-1.23387 3.0864401 0.224775
-1.54474 3.0358801 0.76889902
-1.27224 3.0466101 0.190165
-0.75423002 3.0864401 0.37406799
-1.65572 3.0736001 1.23268
-1.32655 3.1122 0.64333802
-1.03523 3.1122 2.9267399
-0.72860801 3.0864401 0.0113202
-0.71789098 3.1122 0.34992
-1.40483 3.0864401 0.59295201
-1.62385 2.9161201 0.76889902
-1.58482 3.05462 1.20292
-1.35031 3.0051301 0.76889902
-0.88483799 3.1122 0.140486
-1.43487 3.0710199 0.86837697
-1.07411 3.1122 0.12633701
-1.1644599 3.1122 0.22089601
-1.16109 3.1122 0.149546
-0.73647302 3.0466101 0.206825
-1.29528 3.1122 0.47851101
-1.19031 3.1122 0.29156801
-0.71913999 3.1122 2.81284
-0.73809701 3.0466101 0.14624199
-1.23961 3.1122 0.56140703
-0.84870899 3.0710199 1.15852
-0.87736702 3.0864401 0.22194301
-1.24099 3.0710199 0.96416497
-1.21355 3.1122 0.48620901
-1.1144201 3.1122 1.33578
-1.28062 2.9785199 0.35393599
-0.79124498 3.1122 2.9964399
-1.54434 3.0864401 1.18445
-1.18841 3.0864401 0.0310745
-0.71614897 3.0864401 0.86782098
-1.4807301 3.1122 0.52382499
-1.1094199 3.0710199 1.16467
-0.93323898 3.1122 2.94135
-1.1495301 3.1122 1.84899
-0.815449 3.1122 0.50238401
-1.22698 3.01685 0.35393599
-1.34445 2.9282 0.76889902
-1.13392 3.0864401 0.34991699
-1.058 3.1122 0.50364399
-1.25555 3.0710199 1.09165
-0.71473199 3.1122 3.01179
-0.93515402 3.1122 0.39538601
-0.906932 3.0864401 0.26238999
-1.16997 3.0864401 0.55135399
-0.852516 3.0864401 0.89788598
-0.76559103 3.1122 0.60553902
-0.97924697 3.1122 0.322382
-1.21917 3.0864401 0.58483702
-1.04357 3.0864401 0.29501101
-1.70533 3.0864401 1.15684
-1.54256 3.0710199 1.19981
-1.60585 3.0710199 1.0154001
-1.03013 3.0864401 0.47033101
-1.24944 3.0364399 0.76889902
-0.89134097 3.1122 2.1666501
-1.64824 3.1122 0.93172503
-1.61157 3.0710199 1.00792
-1.29556 3.1122 0.95147097
-1.5791 3.0710199 0.92035103
-1.60665 3.1122 0.839643
-1.53861 3.0710199 1.14634
-1.55469 3.0710199 0.85560602
-0.91936201 3.1122 0.081859604
-0.87843102 3.1122 0.55725598
-1.5492001 3.0710199 0.93547702
-1.12409 3.0710199 1.16283
-1.04886 3.0466101 0.163184
-1.25159 3.0864401 0.75425702
-0.83941001 3.0710199 1.1367
-1.48781 3.1122 0.73669899
-1.4290299 3.0864401 0.21910401
-0.81554401 3.0466101 0.17465
-0.71707201 3.05142 0.79865301
-0.81963199 3.1122 0.692725
-1.25129 3.1122 0.30772799
-1.5758801 3.0864401 0.93706298
-0.953076 3.1122 0.29725301
-1.0839 3.1122 0.35696799
-1.1230299 3.0853 1.23268
-1.61535 3.1122 0.52267498
-1.59021 3.0696299 1.20292
-1.16287 3.0864401 0.867908
-0.75174999 3.1122 0.85279298
-1.63816 3.0864401 1.07265
-1.48913 3.1122 0.74981999
-1.4443001 3.0864401 0.218173
-1.24832 3.1122 2.8961201
-1.6045099 3.0864401 0.404829
-1.15608 3.1122 0.989218
-0.84395301 3.1122 0.090479396
-0.97574198 3.0864401 0.067175403
-1.23965 3.1122 0.938187
-0.71921498 3.1122 0.77707398
-1.41407 3.1122 0.75553298
-1.2127399 3.0864401 0.161827
-1.58201 3.1122 1.04106
-1.62413 3.0710199 0.877693
-1.50354 3.1122 0.86195397
-0.87402898 3.1122 0.33589599
-1.20074 3.0466101 0.29671401
-1.0865901 3.1122 1.41241
-0.76194799 3.0864401 0.30455399
-0.79453701 3.1122 0.71728998
-1.32561 2.9979999 0.35393599
-1.2967499 3.02266 0.35393599
-1.45847 3.0466101 0.23098101
-1.40126 3.1122 1.97507
-1.00737 3.0864401 0.35368899
-1.01398 3.0864401 0.16576
-0.89862698 3.0864401 0.24118701
-1.52136 3.1122 0.46959901
-1.57151 2.8692501 0.76889902
-1.28971 3.0864401 0.76729101
-0.856305 3.0466101 0.26804599
-1.32987 3.0864401 0.844024
-1.14182 3.1122 0.534024
-1.41695 3.0710199 0.870722
-1.0099699 3.0466101 1.23151
-1.6989599 3.0710199 0.79883999
-1.18462 3.1122 0.201406
-1.33345 3.0864401 0.84293401
-1.44164 3.1122 0.89068103
-1.06578 3.1122 1.19289
-1.59404 3.03743 0.76889902
-1.03508 3.1122 1.43892
-1.1522 3.0710199 1.05401
-1.16344 3.0864401 0.85778898
-1.24827 3.1122 0.13554201
-1.49491 2.97122 0.76889902
-1.02316 3.0466101 0.14463
-1.10423 3.0864401 0.14205401
-0.74882001 2.9087801 0.76889902
-0.89113897 3.1122 2.1487601
-1.40694 3.0864401 0.40831399
-1.61338 3.1122 0.78100699
-1.08574 3.1122 1.93244
-0.81893998 3.1122 0.61977702
-1.02514 3.0864401 0.0251814
-1.0804 3.1122 0.27317199
-1.35395 3.0710199 0.83603197
-1.63379 3.05547 0.79865301
-0.98776901 3.1122 2.94998
-1.32328 3.1122 0.92650902
-0.73256999 2.9979501 0.35393599
-0.85309798 3.1122 0.565377
-1.3187799 3.0864401 0.204658
-1.58617 3.0864401 0.48736501
-1.48763 3.0864401 0.42409
-0.99592698 3.0864401 0.39584199
-1.43987 3.0864401 0.81338501
-0.94341999 3.0864401 1.2211601
-0.96841902 3.0864401 0.21394999
-0.93932098 3.1122 0.25818601
-1.22469 3.1122 2.9653699
-1.33237 3.0710199 0.88953102
-0.791116 3.0864401 0.0167231
-1.15904 3.1122 0.16355599
-1.59705 3.0864401 0.66912699
-0.88176 3.1122 2.9091201
-1.5360399 3.1122 0.68218899
-1.14781 3.0864401 1.01017
-1.35035 3.0864401 0.38277799
-1.32328 3.1122 0.92650902
-0.87512898 3.1122 0.259242
-1.17619 2.9858301 0.35393599
-1.17296 3.0864401 0.21759
-1.6247 3.0864401 0.80588597
-1.1712199 3.02456 0.35393599
-1.11274 3.0864401 0.33716899
-1.63405 3.1122 0.94938898
-1.55706 3.0710199 0.88881099
-1.22206 3.1122 1.94605
-1.54388 3.1122 1.0306799
-1.1935 3.0864401 0.74484998
-1.51844 3.0466101 0.78253198
-1.35035 3.0864401 0.38277799
-1.08574 3.1122 1.93244
-0.72488397 3.0466101 0.79142702
-1.01168 3.1122 0.93173498
-0.91615999 3.0864401 0.41308999
-1.34495 3.0864401 0.46791399
-1.2812099 3.1122 0.257716
-1.6884201 3.0864401 1.08324
-1.60176 3.0864401 1.08042
-0.85968 3.1122 0.60220701
-0.97384501 3.1122 2.87623
-0.834503 3.0466101 0.0124823
-0.99294001 3.1122 1.7504801
-1.27168 3.0710199 1.16265
-0.89111102 3.0864401 1.19594
-1.63202 3.1122 1.09779
-1.63895 3.1122 0.48833299
-1.38858 3.0864401 0.52528799
-0.744322 3.0864401 0.73156297
-1.35405 3.0864401 0.71794701
-1.61254 3.1122 0.34592301
-1.42409 3.0864401 0.47801
-1.13844 3.0864401 0.261913
-0.85507798 3.0710199 1.15256
-1.69367 3.0710199 0.86666399
-1.61062 3.0710199 1.08527
-1.22447 3.1122 0.83831298
-1.7132699 3.0710199 0.87227601
-0.99592698 3.0864401 0.39584199
-1.09984 3.0864401 0.32667699
-1.22276 3.1122 0.33333501
-0.823704 3.1122 1.05478
-1.31433 3.1122 2.7985699
-0.87873 3.1122 0.26991901
-0.96611297 3.1122 1.53496
-0.92576599 3.1122 2.8801601
-1.4347 2.93907 0.76889902
-1.6354001 3.0710199 1.1926
-1.13563 3.0466101 0.21749499
-1.6743701 3.0864401 0.62982202
-0.89456999 3.0864401 0.589872
-1.57964 3.0864401 0.263634
-1.1442 3.1122 0.34106699
-1.57534 3.1122 0.50174302
-1.3985699 3.1122 1.8891701
-1.68102 3.0710199 1.1004601
-1.6392 3.1122 0.56666398
-1.11096 3.1122 1.16299
-1.11149 3.1122 1.0172499
-1.6603301 3.1122 0.444298
-1.63699 3.0710199 1.1413
-1.45055 3.0864401 0.832744
-1.6367 3.0864401 0.289886
-1.24087 3.1122 2.9610901
-1.29116 3.1122 1.1526999
-1.21033 3.1122 1.14301
-1.42055 3.1122 0.290548
-0.89134097 3.1122 2.1666501
-1.17758 3.1122 0.59631699
-1.0097899 3.0864401 0.45171601
-1.44604 3.1122 0.26023799
-0.96866298 3.1122 1.98877
-1.60592 3.1122 0.909168
-1.2206399 3.0466101 0.166233
-1.09071 2.9516699 0.76889902
-1.70565 3.1122 0.65425199
-1.70289 3.0466101 0.7902
-0.87478697 3.0864401 0.42523801
-0.80052698 3.1122 0.26784599
-0.94490999 3.0864401 0.898489
-1.0696599 3.1122 1.39116
-1.3874 3.1122 0.62520099
-0.96459299 3.0864401 0.49078301
-1.6483099 3.1122 0.75962597
-1.02996 3.0864401 0.127444
-1.16176 3.1122 0.229142
-0.94930202 3.1122 2.9444001
-1.39362 3.0864401 0.48511499
-0.802028 3.0466101 0.245038
-1.08035 3.1122 1.81109
-1.56722 3.1122 0.51560801
-1.50449 3.1122 0.91491401
-1.6887 3.1122 0.82994699
-1.61502 3.1122 0.38265699
-0.92108899 3.0864401 0.22985999
-1.3830301 3.1122 0.25290701
-1.15977 2.9720299 0.35393599
-1.47236 3.0864401 0.29731199
-1.65575 3.1122 0.93179399
-1.4816 2.9365799 0.76889902
-1.6150301 3.0710199 1.01316
-1.69504 3.1122 1.19914
-1.522 3.0864401 0.96835297
-1.33629 3.0864401 0.26068899
-1.4916101 3.0864401 0.54034299
-1.59522 3.0864401 0.56139302
-1.6290801 3.0710199 1.04237
-1.40596 3.1122 0.48623201
-0.96193302 3.0864401 1.2307
-1.64081 3.0864401 0.86417699
-0.96211201 3.1122 0.098952502
-1.30202 2.94893 0.76889902
-1.1442699 2.9423599 0.35393599
-1.58179 3.0864401 0.77113003
-1.3952 2.88783 0.76889902
-1.29099 2.9865699 0.76889902
-1.02889 3.0864401 0.30696401
-0.95926303 3.1122 2.00053
-1.50449 3.0864401 0.95188302
-1.14274 3.1122 0.275235
-1.71198 2.97785 0.76889902
-1.2929699 3.1122 0.52276897
-1.0628099 3.1122 0.30763301
-1.1697201 3.0864401 1.21829
-1.29646 2.87639 0.35393599
-1.19919 3.0864401 0.27778399
-1.51127 2.9834599 0.35393599
-1.12371 3.1122 0.12872399
-1.70683 3.1122 2.5171199
-1.59453 3.0864401 1.0019
-1.4913599 3.0864401 0.43235999
-1.56753 3.0864401 0.26837501
-1.5738699 3.1122 1.0533299
-1.28229 3.0864401 0.53438401
-0.98023701 3.1122 0.18453801
-0.71681499 3.1122 0.64049399
-0.969482 3.0808799 1.23268
-0.71677899 3.1122 2.8910501
-1.18098 3.1122 0.0975376
-1.6190799 3.1122 0.744335
-1.15223 3.1122 1.90483
-0.93578601 3.1122 2.83865
-1.45578 3.0864401 0.25948399
-0.839059 3.1122 2.8361499
-0.80632699 3.1122 0.188454
-1.08887 3.1122 1.01513
-1.22092 3.0864401 0.49221599
-0.78438902 3.0466101 0.118879
-1.23157 3.0864401 0.71016097
-1.40606 3.1122 0.72971702
-1.16241 3.1122 0.40757999
-1.10964 3.1122 0.54977602
-0.76665998 3.1122 2.8046601
-1.2744401 3.1122 0.61998701
-1.3407 3.1122 0.72868598
-1.21534 2.8966999 0.76889902
-1.22928 3.1122 1.22677
-1.26065 3.0864401 1.1648999
-1.13958 3.0466101 0.78835201
-1.5472701 3.0864401 0.93935901
-1.27027 3.0864401 0.77679199
-0.92259198 3.1122 2.04761
-1.00108 3.1122 1.9304301
-0.80494797 3.0864401 0.472936
-1.6411 3.1122 0.326186
-1.14685 3.0710199 0.8574
-1.01135 3.1122 0.93813503
-1.64824 3.1122 0.93172503
-1.2031699 3.0466101 0.79683799
-1.39253 3.0864401 0.43796301
-0.72438198 3.1122 0.48120001
-0.97062898 3.1122 2.0009501
-1.66793 3.1122 0.65534002
-1.50165 2.93437 0.76889902
-1.52628 3.1122 0.81651801
-1.3566099 3.0864401 0.47069401
-1.1717 3.01368 0.35393599
-1.1076601 2.9751401 0.35393599
-1.12085 3.1122 0.41181099
-1.22022 3.0864401 0.107804
-1.5597 3.0864401 0.99200702
-1.5122 3.0864401 0.43061799
-1.22926 3.1122 0.79488099
-1.43297 3.1122 0.91817099
-0.74897802 3.0864401 0.73513103
-1.04326 3.1122 0.50402099
-1.1312 3.1122 1.36271
-1.2337101 3.1122 0.82801402
-1.21418 3.1122 2.92295
-1.15658 3.0710199 1.1774
-0.85506803 3.1122 0.545497
-1.34804 3.0864401 0.85600102
-1.24472 3.0104401 0.35393599
-1.60842 3.0864401 0.80870301
-1.18652 3.0466101 0.32259199
-1.43804 3.1122 0.91072601
-1.42388 3.0864401 0.80895197
-1.1029299 2.87044 0.76889902
-1.70128 3.1122 0.351015
-1.52377 3.1122 0.51646399
-1.19319 3.1122 2.8285601
-0.91592801 3.1122 3.0065
-1.16127 3.00109 0.35393599
-1.54053 3.0864401 0.402574
-1.16179 3.0710199 1.06458
-0.75423002 3.0864401 0.37406799
-0.80092603 3.0864401 0.325573
-1.59523 3.1122 1.19486
-1.05869 3.0636301 1.20292
-1.32576 3.0864401 0.62543201
-1.57937 3.0710199 1.17969
-1.16948 3.1122 2.8845401
-1.55782 3.1122 0.439053
-0.738208 3.0864401 0.148086
-1.17997 3.0466101 0.33517101
-0.79218799 3.1122 2.1991501
-1.61347 3.1122 0.465211
-0.74774098 3.0864401 0.59173298
-0.89544702 3.1122 0.404149
-1.65762 3.1122 0.61190403
-1.17338 3.0710199 0.95920902
-1.2846299 3.0864401 0.272383
-0.99016899 3.1122 1.82531
-1.0997699 3.0864401 1.0237499
-1.6996599 3.0864401 0.51880598
-1.23548 3.0710199 0.83422601
-1.23335 3.1122 0.077128701
-1.18045 3.1122 0.26675001
-1.41215 2.97435 0.35393599
-1.60578 3.0864401 0.46665999
-0.847615 3.0710199 0.92432499
-1.6355 3.1122 0.72664201
-1.50871 2.9856601 0.35393599
-1.2511899 2.9028101 0.76889902
-1.1531301 3.1122 1.1459
-1.10774 3.0864401 0.084555499
-1.07762 3.1122 0.068962499
-1.1606899 3.0864401 1.1108299
-1.20813 3.0864401 0.63449597
-1.4484299 3.1122 0.92273098
-0.91686898 3.0466101 0.107431
-1.58482 3.05462 1.20292
-1.34804 3.0864401 0.85600102
-1.59252 3.0710199 0.86132598
-0.74700701 3.0466101 0.24179199
-0.84868097 3.1122 0.39566699
-0.89968801 3.0864401 0.378923
-1.1321501 3.0864401 0.107748
-1.25047 3.1122 0.116258
-1.51452 3.1122 0.85400099
-1.16456 3.0864401 0.39200601
-1.63595 3.0864401 0.459048
-1.0520999 3.0864401 0.187584
-1.02904 3.0864401 0.142446
-1.2205 3.1122 0.56801099
-1.54071 3.0710199 1.13466
-1.62938 3.0710199 0.91458499
-1.17448 3.1122 0.69725198
-0.83159101 3.0864401 0.87982601
-1.45406 3.0100501 0.35393599
-0.790012 3.0864401 0.59250897
-1.47236 3.0864401 0.29731199
-1.2341 3.1122 0.67549902
-0.80178398 3.1122 0.030177001
-0.96654397 3.1122 1.8947901
-1.09093 3.0864401 1.15187
-0.72860801 3.0864401 0.0113202
-1.50784 3.1122 0.234119
-1.07525 3.0466101 0.14888801
-1.55011 3.0864401 1.02492
-1.20057 3.0864401 0.813061
-1.19319 3.1122 2.8285601
-1.02929 3.0864401 0.55730498
-0.71491802 2.9303501 0.76889902
-1.56831 3.1122 0.45406801
-0.98800099 3.1122 0.023277501
-1.31164 3.1122 0.57234102
-0.91534197 3.1122 0.26167899
-1.5147901 3.0710199 0.85247201
-1.18663 2.95771 0.76889902
-1.0748 3.1122 1.18891
-0.99578601 3.0864401 0.42585301
-1.40774 3.0864401 0.608073
-1.62556 3.0864401 0.89380902
-1.6142401 3.0710199 1.12862
-1.4290299 3.0864401 0.21910401
-1.5863301 3.0864401 0.30175999
-0.97638899 3.0466101 0.119517
-1.68576 3.1122 1.85969
-1.30005 3.0466101 0.174435
-1.09333 3.0864401 1.11394
-1.12161 3.1122 1.84205
-1.316 3.1122 2.7953501
-1.28073 3.0466101 0.22827999
-1.03651 3.0864401 0.30641499
-1.58751 3.1122 0.41953501
-1.66008 3.1122 0.243168
-1.41641 2.9654601 0.35393599
-1.13148 3.1122 0.413436
-0.73644602 3.1122 2.98436
-1.24597 3.0864401 0.910936
-1.15567 3.1122 1.88787
-0.82636201 3.1122 0.87577701
-1.18128 3.1122 3.00769
-1.32951 3.0864401 0.51250303
-1.43826 3.0864401 0.32033399
-0.76728302 3.0864401 0.95139998
-1.62884 3.0864401 0.50507998
-0.884978 3.1122 0.356529
-1.58179 3.0864401 0.77113003
-1.14915 3.1122 0.060741398
-1.64443 3.1122 0.89557397
-0.75437701 3.1122 0.208855
-1.24795 3.0710199 1.16711
-1.51441 3.0864401 0.64421499
-1.0190001 3.0864401 0.15856899
-1.03767 3.0466101 1.21896
-1.62372 3.1122 0.67243302
-1.1714799 3.1122 1.00729
-1.20442 2.9167399 0.35393599
-1.32328 3.1122 0.92650902
-1.25993 3.0864401 1.1147799
-1.61553 3.0864401 0.28368601
-1.24424 3.1122 0.95047098
-0.80160803 3.1122 0.885014
-1.50995 3.0212901 0.76889902
-1.58052 3.0864401 0.60577399
-0.738868 3.1122 0.36289701
-1.39367 3.0710199 0.89791697
-1.51441 3.0864401 0.64421499
-0.92983502 3.0466101 0.0120639
-1.24152 3.1122 0.642465
-1.21272 3.0466101 0.124619
-1.59644 3.1122 0.39730799
-1.45935 3.0864401 0.46830401
-0.82400298 3.0864401 1.1365
-1.16948 3.0864401 0.727117
-1.2166899 3.1122 2.96296
-1.30523 3.1122 0.33281699
-1.21328 3.0864401 0.278929
-0.85906798 3.0466101 0.151987
-0.818528 3.0864401 1.17936
-1.35782 2.87568 0.76889902
-1.23876 3.0228701 0.35393599
-0.94514197 3.1122 0.18773399
-0.90839797 3.1122 2.1311901
-1.14426 3.0710199 0.95410699
-0.77481401 3.1122 0.0125388
-1.46524 3.0864401 0.484974
-1.55817 3.1122 0.80952901
-0.71578097 3.0864401 0.58144498
-1.23402 3.0864401 1.09576
-1.1811399 3.0864401 0.92872697
-1.47236 3.0864401 0.29731199
-1.41609 3.0466101 0.76958799
