# .PCD v0.7 - Point Cloud Data file format
VERSION 0.7
FIELDS x y z
SIZE 4 4 4
TYPE F F F
COUNT 1 1 1
WIDTH 1400
HEIGHT 1
VIEWPOINT 0 0 0 1 0 0 0
POINTS 1400
DATA ascii
-3.53778 -0.69775802 -3.0499699e-08
-2.7843201 -1.0225101 -4.4695e-08
-3.3026299 -0.282897 -1.23657e-08
-3.3791699 -1.03936 -4.5431499e-08
-3.47699 -0.21251 -9.2890096e-09
-3.49892 -0.25605899 -1.11926e-08
-3.02985 -0.322032 -1.40763e-08
-3.3064599 -0.205688 -8.9908303e-09
-3.4504299 -0.96607202 -4.2227999e-08
-2.7788 -1.05621 -4.61682e-08
-2.77404 -0.42481101 -1.8568899e-08
-3.3278601 -0.995408 -4.3510301e-08
-2.7372 -0.38207099 -1.6700699e-08
-3.5875101 -0.74268901 -3.2463699e-08
-3.45263 -0.28716201 -1.25521e-08
-3.4058599 -0.159273 -6.9619599e-09
-3.3803301 -0.49423599 -2.1603499e-08
-3.4879401 -0.61555499 -2.69065e-08
-3.26613 -1.046 -4.5721901e-08
-3.0949399 -1.0302401 -4.5033001e-08
-3.44818 -0.86236697 -3.76949e-08
-3.5642099 -0.649863 -2.84062e-08
-2.9476199 -1.10148 -4.8146699e-08
-2.90169 -1.0658 -4.65871e-08
-3.2387199 -0.325046 -1.42081e-08
-2.78743 -0.167532 -7.32298e-09
-2.96243 -0.90836602 -3.9705601e-08
-2.7647099 -1.0796 -4.7190301e-08
-3.09341 -0.88434798 -3.8655699e-08
-2.84884 -0.143986 -6.2937602e-09
-3.2156899 -0.30392301 -1.32848e-08
-3.4670801 -0.16775601 -7.3327899e-09
-3.4173701 -0.93155098 -4.0719002e-08
-3.05777 -1.01054 -4.4171799e-08
-3.2729499 -0.18008099 -7.8715203e-09
-3.5299699 -0.54200602 -2.36916e-08
-3.0901 -0.29080999 -1.27116e-08
-2.8164699 -0.865246 -3.7820801e-08
-2.74015 -0.87613797 0.0059612598
-2.8306501 -0.90876502 -3.9722998e-08
-3.29301 -1.1115299 -4.8586202e-08
-3.4418199 -0.89348602 -3.9055202e-08
-3.1214399 -0.87429702 -3.8216399e-08
-2.7604201 -0.87195802 0.0059612598
-3.3356299 -0.49598601 -2.168e-08
-3.0996399 -0.311048 -1.35962e-08
-3.4783499 -0.90603602 0.0109061
-3.51389 -0.51080197 -2.2327701e-08
-2.9344599 -0.477934 -2.0890999e-08
-3.2447701 -0.28301701 -1.2371e-08
-2.7634499 -0.37693501 -1.64762e-08
-3.4609301 -0.222923 -9.7441699e-09
-2.8887 -0.871261 -3.8083702e-08
-3.3661699 -0.88772702 0.00158569
-3.4783499 -0.91183299 0.0034085501
-3.3196101 -1.06548 -4.6573199e-08
-3.4197199 -0.88722301 -3.8781401e-08
-3.4116199 -0.92084998 -4.0251301e-08
-3.4490499 -0.863545 0.016190199
-3.58571 -0.37296501 -1.63027e-08
-3.4661 -1.00205 -4.38006e-08
-3.3254299 -0.38564199 -1.68568e-08
-3.1847 -0.209668 -9.1647996e-09
-2.89481 -0.326285 -1.42622e-08
-3.4528899 -0.91654199 -4.0063e-08
-3.31757 -0.249899 -1.09233e-08
-3.35816 -0.890131 -3.89085e-08
-3.3544099 -0.87257999 0.0059612598
-3.45538 -0.81405097 -3.5583e-08
-3.49332 -0.53304499 -2.3299901e-08
-3.4011099 -0.74699801 -3.2652e-08
-3.2409999 -0.33408099 -1.4603e-08
-3.4383299 -0.85683799 0.0059612598
-2.8280301 -0.42791599 -1.8704601e-08
-2.9034801 -0.86818701 -3.7949299e-08
-3.3534701 -0.454768 -1.9878399e-08
-2.7616701 -1.00497 -4.3928399e-08
-3.37293 -0.82299 -3.5973699e-08
-3.08476 -0.88402802 0.00371808
-2.97698 -0.81358898 0.0037354699
-3.61184 -0.98719603 -4.3151299e-08
-3.28458 -0.21366499 -9.3394998e-09
-3.0120499 -0.24930599 -1.08974e-08
-3.3694201 -0.87212098 0.0059612598
-3.70225 -0.639898 -2.79706e-08
-2.77087 -0.979469 -4.28136e-08
-2.7492001 -1.06321 -4.6474099e-08
-3.46838 -0.313458 -1.37016e-08
-3.3223801 -0.27168801 -1.18758e-08
-2.79423 -0.3899 -1.70429e-08
-3.4446001 -0.864043 0.0059612598
-2.7979901 -0.95216298 -4.1620002e-08
-3.2367201 -0.172019 -7.5191098e-09
-3.5109 -0.154626 -6.7588299e-09
-3.37377 -0.52779198 -2.3070299e-08
-3.33201 -1.10783 -4.8424599e-08
-3.34991 -0.227679 -9.9520898e-09
-3.6942101 -1.05208 -4.5987299e-08
-3.5327201 -0.34095499 -1.4903501e-08
-3.57567 -0.665223 -2.9077601e-08
-3.5054801 -0.42260101 -1.8472299e-08
-3.51389 -0.51080197 -2.2327701e-08
-3.4112501 -0.753932 -3.29551e-08
-2.8864601 -0.40723199 -1.7800501e-08
-2.7762699 -0.889395 0.000624393
-3.37519 -0.42300999 -1.84902e-08
-3.46366 -0.57418603 -2.5098201e-08
-3.4695001 -0.17286199 -7.5559798e-09
-3.4110401 -0.86602598 0.0059612598
-3.4805701 -0.948906 -4.1477598e-08
-2.92872 -1.03693 -4.53254e-08
-2.9570401 -0.85386401 0.0015809
-2.91412 -0.44114599 -1.9282901e-08
-3.00425 -0.783898 -3.4265e-08
-3.2133601 -1.03459 -4.5222901e-08
-3.30703 -0.49562499 -2.1664301e-08
-3.55319 -0.63191402 -2.7621599e-08
-3.1265199 -0.91695601 -4.0081101e-08
-2.8218501 -0.88391799 -3.8637001e-08
-2.95597 -0.38665599 -1.6901099e-08
-3.6577599 -0.74942303 -3.2757999e-08
-3.6197 -0.99888802 -4.36624e-08
-3.30703 -0.49562499 -2.1664301e-08
-2.8757601 -0.88789499 -3.88108e-08
-3.1449399 -0.30972999 -1.35386e-08
-3.50212 -0.28372201 -1.24018e-08
-3.62641 -0.97562999 -4.2645802e-08
-3.0585201 -0.223579 -9.7728803e-09
-3.3957601 -1.07779 -4.71112e-08
-2.8323901 -0.44618899 -1.95034e-08
-3.0564101 -0.86522299 0.0059612598
-2.9851899 -0.16152801 -7.0605402e-09
-3.23979 -0.99457002 -4.3473701e-08
-2.8385601 -1.002 -4.3798401e-08
-3.1311901 -0.172667 -7.5474604e-09
-2.79019 -0.149878 -6.5513301e-09
-3.5265601 -0.51466101 -2.2496399e-08
-2.92377 -0.16557699 -7.2375301e-09
-3.6392 -0.60273802 -2.6346299e-08
-2.7372 -0.38207099 -1.6700699e-08
-3.3144701 -0.52594799 -2.2989701e-08
-2.7174599 -0.35563901 -1.55453e-08
-3.4783499 -0.94690901 0.00196174
-3.67557 -0.726942 -3.17754e-08
-3.3100801 -0.41514501 -1.81464e-08
-3.4783499 -0.92109901 0.0113368
-2.8651199 -1.0822099 -4.7304599e-08
-2.7264099 -0.816881 -3.5706702e-08
-3.0462301 -0.374199 -1.63566e-08
-3.01402 -0.37560201 -1.64179e-08
-3.2799001 -0.289837 -1.26691e-08
-2.89025 -0.25844499 -1.12969e-08
-3.09236 -0.247513 -1.0819e-08
-3.1988299 -1.09289 -4.7771401e-08
-3.6196401 -0.41301301 -1.80532e-08
-3.4779999 -0.79794401 -3.4878902e-08
-3.6094999 -0.57008803 -2.49191e-08
-2.80723 -0.86599898 -3.7853699e-08
-3.6718199 -0.60785198 -2.6569801e-08
-3.4642 -0.84253597 -3.6828101e-08
-3.58657 -0.65546602 -2.8651099e-08
-3.28458 -0.21366499 -9.3394998e-09
-3.5984299 -1.0058 -4.39647e-08
-2.7367699 -0.20630699 -9.01787e-09
-2.87468 -0.173326 -7.5762401e-09
-2.9683499 -0.98597902 -4.3098201e-08
-3.3138399 -0.163008 -7.1252599e-09
-3.70648 -0.449413 -1.96443e-08
-3.65185 -0.79330498 0.0131398
-2.8971 -0.98114097 -4.28867e-08
-3.50986 -0.79330498 0.0128808
-3.0116 -1.09776 -4.7984301e-08
-3.41237 -0.827995 -3.61925e-08
-3.56616 -0.99181998 -4.3353499e-08
-2.89854 -0.83935797 -3.6689201e-08
-3.4508901 -0.48342499 -2.1130999e-08
-2.87959 -0.407671 -1.7819699e-08
-2.81479 -0.86586201 -3.7847698e-08
-3.2844601 -0.367953 -1.60836e-08
-3.3889899 -0.64026999 -2.79868e-08
-3.44223 -0.87451297 -3.8225899e-08
-2.9468501 -0.96083701 -4.1999201e-08
-3.3347001 -0.973324 -4.2545e-08
-3.6143799 -0.67412901 -2.94669e-08
-3.4647801 -0.73685801 -3.2208799e-08
-3.0483999 -0.94831997 -4.1452001e-08
-2.7334399 -0.89046401 7.97957e-06
-3.4779699 -0.70718998 -3.0911998e-08
-2.93151 -1.0628901 -4.64598e-08
-2.86971 -0.87217999 -3.8123801e-08
-3.0039699 -0.96129 -4.20189e-08
-3.30703 -0.45307699 -1.98044e-08
-3.10267 -0.32466099 -1.41913e-08
-2.9145 -0.983042 -4.2969699e-08
-3.66344 -0.76699102 -3.3526e-08
-3.22192 -0.25842601 -1.12961e-08
-3.39994 -0.36950099 -1.6151301e-08
-3.1261101 -0.31799799 -1.39e-08
-3.0021701 -0.36252999 -1.58466e-08
-3.28108 -1.09619 -4.7915499e-08
-3.05863 -0.98106998 -4.2883599e-08
-3.42733 -1.09102 -4.7689699e-08
-3.09341 -0.88434798 -3.8655699e-08
-2.7590899 -0.86934298 -3.7999801e-08
-3.3469701 -0.233816 -1.02203e-08
-2.7789099 -0.42197099 -1.8444799e-08
-3.5299599 -0.33459601 -1.46255e-08
-3.1226699 -1.06613 -4.6601699e-08
-3.4490499 -0.88442999 0.0074302
-3.67979 -0.58854401 -2.57258e-08
-2.9119101 -0.311553 -1.36183e-08
-3.1319599 -0.88351899 -3.86195e-08
-3.3984799 -0.81358898 0.0088813799
-3.1394999 -0.139015 -6.0765002e-09
-3.2051301 -0.29326501 -1.28189e-08
-3.2156899 -0.30392301 -1.32848e-08
-3.58657 -0.65546602 -2.8651099e-08
-2.7727599 -0.95671099 -4.1818801e-08
-2.93243 -0.81363899 -3.5565002e-08
-2.81252 -0.17497399 -7.6482802e-09
-2.90288 -0.85588801 -3.7411699e-08
-3.48194 -0.62489599 -2.7314799e-08
-3.6727901 -0.77679801 -3.3954599e-08
-3.4490499 -0.86027998 0.00983107
-3.1772101 -0.96015501 -4.1969301e-08
-3.5529499 -0.45272499 -1.97891e-08
-3.69419 -0.94784099 0.01105
-2.87953 -1.0646501 -4.6536801e-08
-3.40644 -0.79660797 -3.4820498e-08
-3.12502 -0.21662401 -9.4688497e-09
-3.4767599 -0.43802199 -1.91464e-08
-3.2456701 -0.182482 -7.9764702e-09
-3.65926 -0.521909 -2.28132e-08
-3.37257 -0.84717202 -3.7030699e-08
-3.3985801 -0.152885 -6.6827601e-09
-3.1280601 -0.308193 -1.34714e-08
-2.85145 -0.84732902 -3.7037601e-08
-3.4549601 -1.10619 -4.8352799e-08
-3.3441999 -1.0423501 -4.55621e-08
-3.5345399 -0.41743499 -1.8246499e-08
-2.8774099 -0.158022 -6.90732e-09
-2.8257501 -0.86518598 -3.7818101e-08
-3.4196501 -0.86856502 -3.7965801e-08
-2.8225901 -0.40596399 -1.77451e-08
-3.2803199 -0.27270001 -1.192e-08
-2.9735 -0.337706 -1.47615e-08
-3.00453 -0.25197899 -1.10142e-08
-3.49915 -1.07146 -4.6834501e-08
-2.7979801 -0.1459 -6.3774399e-09
-3.2634699 -0.341223 -1.49152e-08
-3.4537599 -0.157309 -6.8761499e-09
-3.1677201 -0.90571302 -3.9589601e-08
-2.8760099 -0.26427701 -1.15518e-08
-3.3694201 -0.87212098 0.0059612598
-3.3791699 -1.03936 -4.5431499e-08
-2.81815 -0.184424 -8.06134e-09
-3.0029099 -0.82365 -3.6002501e-08
-3.63115 -0.57321501 -2.5055799e-08
-3.4383299 -0.85683799 0.0059612598
-3.0885 -1.05764 -4.62306e-08
-3.1005199 -0.85210699 -3.7246501e-08
-3.4208 -0.94775099 -4.14271e-08
-3.0284801 -0.99676299 -4.35695e-08
-3.0080099 -0.83329499 -3.6424201e-08
-3.3857501 -0.504439 -2.20495e-08
-3.40644 -0.79660797 -3.4820498e-08
-2.9800601 -0.38698599 -1.69155e-08
-2.9582701 -0.43912199 -1.91945e-08
-3.67979 -0.58854401 -2.57258e-08
-2.77491 -0.895693 -3.9151601e-08
-3.20785 -0.364669 -1.594e-08
-3.30932 -0.24273001 -1.061e-08
-3.5987301 -0.72215903 -3.1566302e-08
-3.5387299 -0.48584399 -2.12367e-08
-3.3738599 -0.82534403 -3.6076599e-08
-3.4011099 -0.74699801 -3.2652e-08
-3.5543699 -0.76746798 -3.3546801e-08
-3.1853001 -0.21270899 -9.2977404e-09
-3.4855299 -0.99724501 -4.35906e-08
-3.2351 -0.186167 -8.1375404e-09
-3.0262301 -0.37863699 -1.6550599e-08
-2.84955 -0.360322 -1.575e-08
-3.33215 -0.91197902 -3.9863501e-08
-3.0613799 -0.85665399 -3.7445201e-08
-3.6727901 -0.77679801 -3.3954599e-08
-3.40674 -0.243126 -1.06273e-08
-3.47262 -1.09703 -4.7952302e-08
-3.49405 -0.18925001 -8.2722904e-09
-2.84672 -0.98328 -4.2980101e-08
-3.5092399 -0.53194398 -2.32518e-08
-3.2995701 -1.12273 -4.9075599e-08
-3.4783399 -0.80954498 -3.5386002e-08
-3.22192 -0.25842601 -1.12961e-08
-3.2744901 -1.0450799 -4.56814e-08
-2.7651 -0.92386299 -4.0383e-08
-3.14452 -0.93985099 -4.1081801e-08
-3.3413501 -0.65503198 -2.8632099e-08
-3.13011 -1.09464 -4.7847699e-08
-2.71771 -0.37178299 -1.6251001e-08
-3.5810399 -0.53775901 -2.3506001e-08
-3.45628 -0.80974901 -3.5394901e-08
-2.8703899 -0.86671901 -3.7885201e-08
-3.26052 -0.37472799 -1.6379801e-08
-3.6473 -0.46839499 -2.0473999e-08
-3.4134099 -0.90817302 -3.9697198e-08
-2.9481499 -0.199921 -8.7387502e-09
-2.80986 -0.94153398 -4.1155399e-08
-3.6556101 -0.67501003 -2.9505401e-08
-3.4551499 -0.76476997 0.00798635
-3.4351001 -1.0003999 -4.3728601e-08
-3.03897 -1.0705 -4.6792699e-08
-3.1644399 -0.32867801 -1.43668e-08
-2.7492001 -1.06321 -4.6474099e-08
-3.1882601 -1.02507 -4.48068e-08
-3.45049 -0.26761901 -1.16979e-08
-3.33393 -0.97959799 -4.2819199e-08
-3.4647801 -0.73685801 -3.2208799e-08
-3.4029701 -0.59525001 -2.6019e-08
-3.0049701 -0.81358898 0.0083550802
-3.5388899 -1.0419101 -4.55431e-08
-2.9087801 -0.95254999 -4.1636898e-08
-3.3715701 -0.96936399 -4.2371902e-08
-3.2695301 -0.31765699 -1.38851e-08
-3.47139 -0.73424798 -3.20947e-08
-3.5267601 -0.74900699 -3.2739798e-08
-2.74157 -0.242553 -1.06023e-08
-2.7467101 -0.838857 -3.6667299e-08
-3.2767 -0.092981301 -4.0643e-09
-3.4149001 0.27948201 1.22164e-08
-3.6554899 0.19759201 8.6369596e-09
-3.63293 0.44062099 1.926e-08
-3.5097201 0.055803601 2.4392399e-09
-3.5462201 0.66160798 2.89195e-08
-3.3494301 0.36095199 1.57776e-08
-3.48717 0.68986797 3.0154801e-08
-3.60111 0.35942301 1.57108e-08
-2.8928599 -0.021280801 -9.3020303e-10
-3.5562301 0.68778199 3.00636e-08
-3.2650399 0.096962102 4.2383101e-09
-2.80674 0.314688 1.37553e-08
-3.4621999 0.53586203 2.34231e-08
-2.9651899 0.40095201 1.7526e-08
-2.8433299 0.141756 6.1963199e-09
-3.53848 0.104289 4.5585899e-09
-3.2599299 -0.0233938 -1.02257e-09
-3.3399601 0.85403299 3.73307e-08
-3.37795 0.112674 4.9250701e-09
-3.0724199 0.84431201 3.69057e-08
-2.9984701 0.534208 2.33508e-08
-3.19719 0.132824 5.8058598e-09
-3.45612 0.373312 1.63178e-08
-3.2469299 -0.051189501 -2.2375399e-09
-3.6319399 0.80275899 3.50894e-08
-3.1391201 0.27576801 1.20541e-08
-3.6496 0.15147901 6.6212902e-09
-3.4558301 0.456954 1.99739e-08
-3.6110301 0.52371001 2.28919e-08
-3.13043 0.34204701 1.4951199e-08
-3.48792 -0.056481801 -2.46888e-09
-3.58742 0.19576 8.5568601e-09
-3.5404799 0.80883199 3.5354901e-08
-3.5409901 0.34921199 1.52644e-08
-3.50962 0.69260502 3.02744e-08
-3.12287 0.40526 1.7714299e-08
-3.401 0.60881102 2.66117e-08
-3.0739801 0.0251453 1.09913e-09
-3.04182 0.38157299 1.66789e-08
-3.3347399 0.161732 7.0694499e-09
-2.74419 0.43971699 1.9220501e-08
-3.1889901 0.34359801 1.5018999e-08
-3.1358399 0.771137 3.3707199e-08
-3.6139901 0.585482 2.5592e-08
-3.5308001 0.54727 2.39217e-08
-3.1178401 0.54429001 2.37915e-08
-3.01033 0.153345 6.7028698e-09
-3.39043 0.74127698 3.2401999e-08
-3.26846 0.167559 7.3241702e-09
-2.9164 0.30037799 1.31298e-08
-3.61515 0.61117297 2.6715e-08
-2.8296101 0.106665 4.66243e-09
-2.73034 0.26910299 1.17628e-08
-3.2520299 0.35032499 1.5313001e-08
-3.67329 0.31221601 1.36473e-08
-3.26373 0.44520199 1.9460201e-08
-2.9504099 0.147643 6.4536199e-09
-3.15873 -0.087677397 -3.8324699e-09
-3.5359199 0.00499654 2.18406e-10
-3.0349801 0.13715801 5.9953198e-09
-3.39363 0.55698198 2.43462e-08
-3.1979001 0.169966 7.4293798e-09
-3.2233701 0.44710401 1.95434e-08
-3.0676601 0.43009299 1.8799801e-08
-3.5961499 0.58653599 2.56381e-08
-3.0945799 0.54287302 2.37295e-08
-3.23243 -0.0073109898 -3.1957001e-10
-3.05323 0.0240515 1.05132e-09
-3.20558 0.27182001 1.18815e-08
-2.9942901 0.29806 1.30285e-08
-3.2003 0.63183498 2.76181e-08
-3.3207901 0.4903 2.14315e-08
-3.5703199 0.234438 1.02475e-08
-3.2281499 0.69500101 3.0379201e-08
-3.4861 -0.019972401 -8.7301499e-10
-3.6753099 0.442922 1.9360501e-08
-2.7521501 -0.0280191 -1.22474e-09
-3.04737 0.34705901 1.5170301e-08
-3.0522699 0.82428801 3.60304e-08
-3.4630799 0.58801401 2.57027e-08
-3.42524 0.049106698 2.1465001e-09
-3.6110301 0.52371001 2.28919e-08
-3.0069101 0.0198617 8.6817697e-10
-3.2717199 0.70567399 3.0845701e-08
-2.84166 -0.077815503 -3.4013901e-09
-3.0317199 0.438759 1.91786e-08
-3.4480801 0.55096698 2.4083301e-08
-2.8143899 0.25449899 1.11244e-08
-3.4820001 -0.124909 -5.4599201e-09
-3.47752 0.33500201 1.46433e-08
-3.5086601 -0.036184698 -1.58167e-09
-3.7084799 -0.0335977 -1.46859e-09
-2.7628801 0.28584701 1.24947e-08
-2.9630699 0.031502198 1.377e-09
-3.6766801 0.69090998 3.02004e-08
-3.0632901 0.43254799 1.89071e-08
-3.47751 0.61115998 2.67144e-08
-3.5432301 0.71183598 3.11151e-08
-3.11538 0.85060298 3.7180701e-08
-3.26297 0.227595 9.9484199e-09
-3.21907 0.053875599 2.35496e-09
-3.28847 0.45289999 1.9796699e-08
-3.1394701 0.66380602 2.9015601e-08
-3.3821101 -0.00032806399 -1.43423e-11
-2.8268199 0.0210541 9.20299e-10
-3.61761 0.32852301 1.43601e-08
-3.1275499 0.200178 8.7499696e-09
-3.5690899 0.037287802 1.62989e-09
-3.44243 0.039861001 1.74236e-09
-3.6233001 0.43825999 1.9156801e-08
-3.27918 0.42342201 1.8508199e-08
-3.1949401 0.57479203 2.51248e-08
-3.6020601 0.612854 2.67885e-08
-3.6616199 0.201206 8.7949097e-09
-3.4861 -0.019972401 -8.7301499e-10
-3.1927199 0.51140702 2.2354101e-08
-2.91733 0.29249901 1.27854e-08
-3.1089301 0.41292599 1.80494e-08
-2.9269099 0.413427 1.8071299e-08
-3.2239101 0.34261 1.49758e-08
-3.5555799 0.33894199 1.48155e-08
-2.7306299 0.020094801 8.78359e-10
-3.50771 0.32612699 1.42553e-08
-3.70913 -0.0113385 -4.9561799e-10
-3.30917 0.71041399 3.1052899e-08
-2.89591 0.441796 1.9311299e-08
-3.54035 0.70078897 3.0632201e-08
-2.9497001 0.41981599 1.8350599e-08
-3.16136 0.84091902 3.6757399e-08
-3.6250999 0.58494598 2.55686e-08
-3.6496 0.15147901 6.6212902e-09
-3.30514 0.59820199 2.6147999e-08
-3.4284799 0.36331099 1.5880699e-08
-3.21907 0.053875599 2.35496e-09
-3.54476 0.758564 3.3157601e-08
-3.2320099 -0.0213094 -9.3145403e-10
-3.4332199 0.078362003 3.4252801e-09
-2.77826 0.495891 2.16759e-08
-3.2861099 0.72395498 3.1644799e-08
-3.0155499 0.53906298 2.3563e-08
-3.10605 0.019707801 8.6144802e-10
-2.9885499 0.164001 7.1686701e-09
-2.72616 0.0209367 9.15168e-10
-2.7444301 -0.068272501 -2.98426e-09
-3.0518701 0.373954 1.6345901e-08
-3.0811999 0.82840598 3.6210501e-08
-3.18154 0.18133999 7.9265501e-09
-3.3814499 0.059090599 2.5829101e-09
-2.74491 0.035777401 1.56386e-09
-3.4314699 0.74793601 3.2692999e-08
-3.21105 0.73719501 3.22236e-08
-3.20648 0.636316 2.7814e-08
-3.2311399 0.449173 1.96338e-08
-2.90382 -0.106105 -4.6379798e-09
-3.6461301 0.35339901 1.54474e-08
-3.0302899 0.0096968403 4.2385701e-10
-3.1405599 0.798599 3.49076e-08
-3.5313399 0.19877601 8.68868e-09
-3.2408099 0.53492498 2.33821e-08
-3.58149 0.0307949 1.34608e-09
-2.8731799 -0.115226 -5.03664e-09
-3.1892099 0.66122001 2.8902599e-08
-3.5362201 0.090801097 3.96901e-09
-3.3659899 0.24103799 1.0536e-08
-2.86813 0.15792499 6.9030599e-09
-3.66923 0.19671699 8.5987004e-09
-3.2861099 0.72395498 3.1644799e-08
-3.3015299 -0.063460298 -2.77391e-09
-3.42554 0.228054 9.96849e-09
-2.9326401 -0.127533 -5.5745901e-09
-3.2692201 0.42402601 1.85346e-08
-3.15961 0.75924301 3.3187298e-08
-2.81585 0.19407 8.4830099e-09
-3.31882 0.80577099 3.5221099e-08
-2.7358899 0.062548503 2.7340501e-09
-3.5457599 0.23416901 1.02357e-08
-3.64661 0.78022099 3.41043e-08
-3.4557199 0.34111401 1.49104e-08
-3.5174601 0.46103901 2.01525e-08
-3.63835 0.73751301 3.2237399e-08
-3.6241901 0.75781202 3.3124699e-08
-2.79772 0.433258 1.89382e-08
-2.81898 0.40514901 1.77095e-08
-3.36818 0.77104801 3.3703301e-08
-3.1147399 -0.045980599 -2.0098601e-09
-3.4602301 0.73411 3.20887e-08
-3.48998 0.043036401 1.8811701e-09
-2.72403 -0.063151397 -2.7604099e-09
-3.52316 0.59831798 2.6153099e-08
-3.0913 0.512371 2.23963e-08
-3.4189301 0.66507202 2.9071e-08
-3.0046101 0.33168799 1.44984e-08
-3.70555 0.350097 1.5303099e-08
-3.4105101 0.51269501 2.2410401e-08
-3.02268 0.18504401 8.0884597e-09
-3.00034 0.367138 1.6048e-08
-3.3561201 0.31445101 1.3745e-08
-3.52843 0.828785 3.6227e-08
-3.1828001 0.52126801 2.27852e-08
-3.52861 0.26318601 1.15041e-08
-3.65786 0.42388901 1.8528601e-08
-3.3010199 0.295158 1.29016e-08
-3.1329701 0.704925 3.0812998e-08
-3.44891 0.26478001 1.15738e-08
-3.4167299 0.73660201 3.2197601e-08
-3.2311399 0.449173 1.96338e-08
-3.4743299 -0.072899401 -3.1865099e-09
-3.4337499 0.477851 2.0887301e-08
-3.5065801 0.30884501 1.34999e-08
-3.4829099 0.33342701 1.45744e-08
-3.5265801 0.59317702 2.5928401e-08
-3.5340199 0.020917 9.1430402e-10
-3.1387899 0.58418798 2.55354e-08
-3.4061401 0.54037601 2.36204e-08
-3.6350601 -0.0485112 -2.12047e-09
-2.83003 -0.0139186 -6.08395e-10
-3.0224299 0.52447999 2.29255e-08
-3.58041 0.452512 1.9779799e-08
-3.02142 0.121705 5.3198299e-09
-3.6461401 0.29054999 1.27002e-08
-3.0130601 0.0148574 6.49436e-10
-3.3399601 0.85403299 3.73307e-08
-3.68155 0.37177601 1.62507e-08
-3.6701801 0.218969 9.5713499e-09
-3.0097301 0.462576 2.02197e-08
-3.5086601 -0.036184698 -1.58167e-09
-2.77985 0.23732901 1.03739e-08
-3.5548301 0.175955 7.6911597e-09
-3.3912599 -0.0618531 -2.70366e-09
-3.3373101 0.0044025802 1.9243999e-10
-3.3875699 0.62874901 2.7483299e-08
-2.9689901 0.29065701 1.27049e-08
-3.1260099 0.76679802 3.3517502e-08
-3.0282099 0.149074 6.51618e-09
-3.0044 0.068838403 3.0089999e-09
-2.7948799 -0.074316397 -3.24844e-09
-3.3677599 0.64021999 2.79846e-08
-3.53163 0.023664899 1.03442e-09
-3.6903 0.775617 3.3903e-08
-2.86408 0.48268399 2.10986e-08
-2.8329501 -0.0807698 -3.5305301e-09
-3.27035 0.192141 8.39868e-09
-3.5181301 0.189961 8.3033802e-09
-2.7497001 0.038241401 1.67157e-09
-3.27386 0.199652 8.7269898e-09
-3.0330601 -0.072326399 -3.16146e-09
-3.1144199 0.698057 3.0512801e-08
-3.7037499 0.72509199 3.1694501e-08
-3.4884 0.589836 2.5782301e-08
-3.0643401 0.32036799 1.40036e-08
-3.38626 0.15221 6.65325e-09
-3.5313399 0.19877601 8.68868e-09
-3.41746 -0.091264002 -3.98924e-09
-2.7479801 -0.038843598 -1.6979e-09
-3.4602301 0.73411 3.20887e-08
-2.74195 0.0322886 1.41137e-09
-2.97615 0.157838 6.8992398e-09
-3.2453499 0.078317903 3.42336e-09
-3.65115 0.505409 2.2091999e-08
-3.4534299 0.059315901 2.59276e-09
-2.8019099 0.44146001 1.9296699e-08
-3.33968 0.41859701 1.82973e-08
-3.2955501 0.769225 3.36236e-08
-3.40873 -0.0647934 -2.83219e-09
-2.9152 0.401492 1.7549601e-08
-2.98508 0.417797 1.82623e-08
-3.6552701 0.33644199 1.47062e-08
-3.2128301 0.202042 8.8314698e-09
-3.4991801 0.55834699 2.44059e-08
-3.6559701 0.106041 4.63517e-09
-3.27386 0.199652 8.7269898e-09
-2.78544 0.159365 6.9660202e-09
-3.3209 0.41781101 1.8262901e-08
-3.26141 0.50910699 2.22536e-08
-3.17484 0.530725 2.3198499e-08
-3.6954701 0.39720199 1.7362099e-08
-3.5929 0.356563 1.55857e-08
-3.0556099 0.70083201 3.0634101e-08
-3.27599 0.84458798 3.69178e-08
-3.5876 0.750072 3.2786399e-08
-3.4971001 0.38073799 1.6642399e-08
-3.68436 0.40413001 1.7664901e-08
-3.1985199 0.38562399 1.6855999e-08
-3.2005501 0.58345401 2.55034e-08
-3.0553801 0.064690098 2.8276701e-09
-3.67572 0.729038 3.1867e-08
-3.10481 0.044862401 1.96098e-09
-3.2009001 0.103709 4.53322e-09
-2.8833699 0.38890499 1.6999399e-08
-3.1040101 0.027468899 1.2007e-09
-3.3041101 0.374327 1.63622e-08
-3.54442 0.0165642 7.24038e-10
-3.5536301 0.53776997 2.35065e-08
-3.5836599 0.34334901 1.50081e-08
-3.5836201 0.0386867 1.69103e-09
-3.3320601 0.64855802 2.8349101e-08
-3.3387301 0.74437702 3.25375e-08
-3.6838 0.76633102 3.3497098e-08
-2.8425701 0.212109 9.2715098e-09
-3.1178 0.49355301 2.1573699e-08
-2.7876999 0.200257 8.7534202e-09
-3.3347199 0.50770497 2.21923e-08
-3.42257 0.55673802 2.43356e-08
-3.01476 0.041825701 1.82824e-09
-3.59654 0.59179902 2.5868101e-08
-3.26811 0.015665401 6.8475398e-10
-3.4075 0.082788303 3.61876e-09
-3.2876101 0.52611399 2.2997e-08
-3.3861899 -0.058739498 -2.5675599e-09
-3.3987601 0.18725801 8.1852498e-09
-2.89884 0.36011201 1.57409e-08
-3.22067 0.28230101 1.23397e-08
-3.0392201 0.168274 7.3553998e-09
-3.7037499 0.72509199 3.1694501e-08
-2.8406701 0.436005 1.90582e-08
-2.8052001 0.323071 1.41217e-08
-3.5662 0.59476298 2.59977e-08
-3.2563 -0.062295299 -2.7229901e-09
-3.6958001 0.318584 1.39256e-08
-3.28582 0.60705101 2.6534799e-08
-2.9416699 0.43705601 1.9104201e-08
-3.15289 0.0117105 5.1187499e-10
-3.68436 0.40413001 1.7664901e-08
-3.28934 0.166089 7.25989e-09
-3.2672901 0.31880599 1.39353e-08
-3.5769 0.138129 6.0377698e-09
-2.9584799 0.101186 4.4229602e-09
-2.9928 0.144232 6.3045098e-09
-2.90237 0.39626899 1.73213e-08
-3.0724699 0.676072 2.9551799e-08
-3.5004599 0.51781303 2.2634101e-08
-3.5446 0.078614801 3.4363301e-09
-3.3282499 0.628622 2.74777e-08
-3.5364399 -0.125553 -5.48805e-09
-3.1927199 0.51140702 2.2354101e-08
-3.5195701 0.319215 1.39532e-08
-3.31603 0.064932004 2.8382501e-09
-3.32428 0.0066306 2.8982999e-10
-3.40097 0.71388602 3.1204699e-08
-3.4368999 0.36347201 1.58877e-08
-2.7907701 0.47689801 2.08457e-08
-3.3989 -0.0205086 -8.9645302e-10
-3.6872001 0.25812301 1.12828e-08
-3.1949301 -0.030177601 -1.3190899e-09
-3.67031 0.449072 1.96294e-08
-3.3206 0.61796498 2.70119e-08
-3.6208301 0.240536 1.05141e-08
-3.0545101 0.25082999 1.0964e-08
-3.0861101 0.26702899 1.16721e-08
-3.3608601 0.47746599 2.08705e-08
-3.6178899 0.028869299 1.2619e-09
-3.4360001 0.048785999 2.13249e-09
-3.1624601 -0.082062401 -3.58703e-09
-3.52843 0.828785 3.6227e-08
-3.31001 0.34704599 1.51697e-08
-3.0604701 0.75204599 3.2872698e-08
-3.2881999 0.730654 3.1937599e-08
-3.35585 -0.061398301 -2.6837801e-09
-3.45755 0.200579 8.76752e-09
-3.5889299 0.47018501 2.0552299e-08
-2.7319901 0.031239601 1.36551e-09
-3.6836801 0.051680598 2.2590101e-09
-3.7096901 0.76340199 3.3368998e-08
-3.11831 0.59546798 2.60285e-08
-3.4189899 0.76601601 3.34833e-08
-2.77756 -0.122003 -5.3328901e-09
-3.4296501 0.25885099 1.13146e-08
-3.0875399 -0.043584902 -1.90514e-09
-3.3516901 0.31026 1.35618e-08
-3.08289 0.79319 3.46711e-08
-3.66588 0.47029099 2.05569e-08
-2.9106801 -0.130218 -5.69195e-09
-3.6950099 0.784576 3.4294601e-08
-3.2176099 0.0073605198 3.21734e-10
-3.6687601 0.688564 3.0097802e-08
-3.1872201 -0.052100901 -2.2773901e-09
-3.2440901 0.48775601 2.13203e-08
-3.1461201 0.34722 1.5177299e-08
-3.1178 0.49355301 2.1573699e-08
-3.3762901 0.49431899 2.16072e-08
-2.9082699 0.26882699 1.17507e-08
-3.3789001 0.187121 8.1792502e-09
-3.5188 0.035744701 1.56244e-09
-3.60851 0.337578 1.47559e-08
-2.8605101 0.169348 7.40238e-09
-3.0208399 0.12913799 5.6447398e-09
-3.3180599 0.27674201 1.20967e-08
-3.6396599 0.094565198 4.1335402e-09
-3.2990201 -0.030599499 -1.33753e-09
-3.6241901 0.75781202 3.3124699e-08
-2.81585 0.19407 8.4830099e-09
-3.1531701 0.375846 1.6428601e-08
-3.6666701 0.032206699 1.40779e-09
-3.3280399 0.308608 1.34896e-08
-3.44941 0.73607498 3.2174601e-08
-2.7756701 -0.115678 -5.05639e-09
-3.5836201 0.0386867 1.69103e-09
-2.8081701 0.0193989 8.4795099e-10
-3.67309 0.457901 2.00153e-08
-3.48717 0.68986797 3.0154801e-08
-3.0460999 0.31373999 1.37139e-08
-3.04182 0.38157299 1.66789e-08
-3.0104201 0.12767699 5.5808802e-09
-2.75038 -0.088186704 -3.8547299e-09
-3.2577 0.44032699 1.92471e-08
-3.4756899 0.56138098 2.4538499e-08
-3.22843 0.76685601 3.3520099e-08
-3.3089099 0.47090399 2.05837e-08
-3.3329699 0.36287999 1.5861801e-08
-2.8183801 0.35846299 1.56688e-08
-3.3117299 -0.0664303 -2.9037399e-09
-3.6840799 0.339167 1.48253e-08
-3.36709 0.053439099 2.3358799e-09
-3.4860301 0.086498 3.78092e-09
-3.3094201 0.66189802 2.8932201e-08
-3.58605 0.41767699 1.8257101e-08
-3.5811 0.56016099 2.44852e-08
-2.7904699 -0.116177 -5.0782298e-09
-3.3877101 0.31798601 1.38995e-08
-2.89977 0.106423 4.65185e-09
-3.3038099 0.66620302 2.91204e-08
-3.1587501 0.81547898 3.56454e-08
-3.46576 0.071020201 3.1043701e-09
-2.8302701 0.0245107 1.07139e-09
-3.4604499 0.25372401 1.10905e-08
-2.9734499 0.20384599 8.9103303e-09
-3.5554299 0.858733 3.75361e-08
-2.85201 0.39664 1.73375e-08
-3.02086 0.055981301 2.4469999e-09
-3.6656599 0.69947398 3.05747e-08
-3.5690501 0.0080445996 3.5163999e-10
-3.2393501 0.48303899 2.1114101e-08
-3.47927 0.029790601 1.30218e-09
-3.50945 0.60243601 2.6333099e-08
-3.02665 0.168203 7.3523401e-09
-3.09882 0.255696 1.11767e-08
-3.0729101 0.60808098 2.65798e-08
-2.91681 -0.076266997 -3.33371e-09
-2.81442 0.43600199 1.9058101e-08
-3.7016599 0.25610301 1.11945e-08
-3.4198599 0.41081101 1.7956999e-08
-3.35039 0.464012 2.02824e-08
-2.8848901 0.39590099 1.7305201e-08
-3.0629399 0.0078030801 3.41082e-10
-2.8034899 0.35793 1.5645499e-08
-3.3803401 0.53192502 2.3250999e-08
-3.47293 0.234327 1.02427e-08
-3.3478401 0.60836297 2.6592099e-08
-3.3539 0.29735401 1.29976e-08
-3.4094901 0.22532301 9.8490904e-09
-2.79126 0.0138857 6.0695998e-10
-3.3364401 0.83838898 3.6646799e-08
-3.0606699 0.82653201 3.6128501e-08
-2.8278501 0.0056209601 2.45691e-10
-2.7479801 -0.038843598 -1.6979e-09
-3.6443701 0.86089998 3.7630802e-08
-3.03583 -0.00336695 -1.47168e-10
-3.50559 0.44527999 1.9463601e-08
-3.2388401 0.24984901 1.09212e-08
-3.37888 0.00185543 8.1101299e-11
-3.6963 0.137464 6.0087002e-09
-3.56201 0.85389298 3.7324501e-08
-3.3117299 -0.0664303 -2.9037399e-09
-3.47347 0.60135001 2.6285599e-08
-3.6044199 0.47606301 2.08092e-08
-3.28022 0.159438 6.9691799e-09
-3.26846 0.167559 7.3241702e-09
-3.2692201 0.42402601 1.85346e-08
-3.47752 0.33500201 1.46433e-08
-3.6571701 0.26543 1.16022e-08
-2.81937 0.45458099 1.98702e-08
-3.2692201 0.42402601 1.85346e-08
-3.0638001 0.18665101 8.1587102e-09
-3.7091 0.49607801 2.16841e-08
-3.07165 -0.00525069 -2.29516e-10
-2.7298601 0.52024698 2.2740499e-08
-3.5536301 0.53776997 2.35065e-08
-2.9171901 0.114976 5.0257301e-09
-3.1985199 0.38562399 1.6855999e-08
-3.3854101 0.116227 5.0804001e-09
-3.0903599 0.18939801 8.2787999e-09
-3.34183 0.46263799 2.02224e-08
-3.4978499 0.57494497 2.5131399e-08
-3.39327 0.089604199 3.9166901e-09
-3.3884799 0.51167899 2.2366001e-08
-3.5858099 0.239889 1.04858e-08
-3.3484199 0.481197 2.10336e-08
-2.97615 0.157838 6.8992398e-09
-3.1059999 0.096573398 4.2213202e-09
-3.4230199 0.77450401 3.3854398e-08
-3.23298 0.057535999 2.51496e-09
-2.8275399 -0.057720199 -2.52301e-09
-2.96525 0.50265902 2.1971699e-08
-3.02268 0.18504401 8.0884597e-09
-3.1985199 0.38562399 1.6855999e-08
-2.8171301 -0.055814099 -2.43969e-09
-3.1526401 0.27250999 1.19117e-08
-2.9895 -0.043028802 -1.8808399e-09
-2.7804 -0.090962097 -3.9760399e-09
-3.3585999 0.55562103 2.4286701e-08
-3.40189 0.82098901 3.5886199e-08
-3.17084 0.016518701 7.2204598e-10
-3.2881999 0.730654 3.1937599e-08
-3.4365101 0.51059097 2.23184e-08
-3.39306 -0.048792899 -2.1327899e-09
-3.5113399 -0.065983102 -2.88418e-09
-2.78544 0.159365 6.9660202e-09
-2.9113901 0.22241101 9.7218296e-09
-3.50758 0.72799802 3.18215e-08
-3.5014601 -0.00388636 -1.69876e-10
-3.2297499 0.26852101 1.17373e-08
-2.94611 0.26695201 1.16687e-08
-3.5174601 0.46103901 2.01525e-08
-3.6350601 -0.0485112 -2.12047e-09
-3.42733 0.58635199 2.5629999e-08
-3.2511499 0.34500301 1.5080399e-08
-3.25898 0.47814101 2.09e-08
-3.5901 0.86493599 3.7807201e-08
-3.15961 0.75924301 3.3187298e-08
-2.7295301 0.84924603 3.7121399e-08
-2.74684 0.401043 1.7530001e-08
-3.55966 0.218134 9.5348698e-09
-3.3989 -0.0205086 -8.9645302e-10
-3.5699899 -0.0572262 -2.50141e-09
-3.43366 0.76371503 3.3382801e-08
-3.4604499 0.25372401 1.10905e-08
-3.5197201 0.047910199 2.0942099e-09
-3.65523 0.744847 3.2557999e-08
-3.25597 0.226798 9.91355e-09
-3.6849999 0.21558499 9.4234496e-09
-3.39571 0.802405 3.5073899e-08
-3.17205 0.14274 6.2393299e-09
-3.2703199 0.034536902 1.50964e-09
-3.5727701 0.0359364 1.57082e-09
-3.24315 0.775868 3.3913999e-08
-3.30299 0.74250603 3.2455699e-08
-3.2802899 0.43935299 1.9204601e-08
-3.35412 0.405045 1.7704901e-08
-3.4062901 -0.050367899 -2.20163e-09
-3.2955501 0.073167004 3.1981999e-09
-3.54303 -0.019661799 -8.5943702e-10
-2.9152 0.401492 1.7549601e-08
-3.6822 0.067068197 2.9316201e-09
-3.2692201 0.42402601 1.85346e-08
-3.1330099 0.69997799 3.0596699e-08
-3.39007 0.357409 1.56227e-08
-3.5357599 -0.089919902 -3.9304902e-09
-3.0861001 0.48885101 2.13682e-08
-2.9390399 -0.104431 -4.5647801e-09
-3.6595299 0.0018025599 7.8792098e-11
-3.4043701 -0.040288702 -1.76106e-09
-2.87305 0.34853801 1.5235001e-08
-3.2453301 0.46257001 2.0219399e-08
-3.2523401 -0.090875603 -3.9722599e-09
-2.7314501 0.35111299 1.5347499e-08
-3.11462 0.61693001 2.69666e-08
-3.7123699 0.44687101 1.95332e-08
-2.8302701 0.0245107 1.07139e-09
-3.4075 0.082788303 3.61876e-09
-3.39306 -0.048792899 -2.1327899e-09
-3.26772 0.86023903 3.76019e-08
-3.52314 0.273545 1.19569e-08
-3.52894 0.36870199 1.6116299e-08
-3.4055901 0.77250898 3.3767101e-08
-3.3387301 0.74437702 3.25375e-08
-3.2297299 0.724895 3.16859e-08
-3.18081 0.61275297 2.6784001e-08
-3.58935 0.16230699 7.0945898e-09
-3.25734 0.25129601 1.09844e-08
-3.69241 0.85537201 3.7389199e-08
-3.14925 0.454128 1.98504e-08
-2.8433299 0.141756 6.1963199e-09
-3.3877101 0.31798601 1.38995e-08
-3.0734799 0.226631 9.9062403e-09
-3.43102 0.049215 2.1512401e-09
-2.7721701 0.0329597 1.4407e-09
-3.4077301 0.11466 5.0118798e-09
-3.5097499 0.120632 5.2729598e-09
-3.3711901 0.632231 2.7635499e-08
-2.9800301 -0.112606 -4.9221098e-09
-3.58041 0.452512 1.9779799e-08
-3.25736 0.319729 1.39757e-08
-3.1587501 0.81547898 3.56454e-08
-3.67574 0.83649498 3.6564e-08
-2.9416699 0.43705601 1.9104201e-08
-3.1698899 0.84281701 3.6840401e-08
-3.1470001 0.50589198 2.2112999e-08
-3.56548 0.54234099 2.3706299e-08
-3.70913 -0.0113385 -4.9561799e-10
-3.2470601 0.68151802 2.9789801e-08
-3.1147399 -0.045980599 -2.0098601e-09
-3.1041801 0.80000502 3.4968998e-08
-3.3030701 0.249807 1.09193e-08
-3.04737 0.30917001 1.35141e-08
-3.0318899 0.0091940202 4.01879e-10
-2.9981301 -0.0227715 -9.9536701e-10
-3.08743 -0.0135868 -5.9389299e-10
-3.6907799 0.082827397 3.6204699e-09
-3.4820001 -0.124909 -5.4599201e-09
-3.39306 -0.048792899 -2.1327899e-09
-2.8366499 0.16974901 7.4198798e-09
-3.46896 -0.105474 -4.6103601e-09
-2.89429 0.071540996 3.1271301e-09
-3.3141501 0.32675001 1.42825e-08
-3.54425 0.477422 2.0868599e-08
-3.0144501 0.37339401 1.6321399e-08
-3.5806501 -0.031240501 -1.36555e-09
-3.2676699 0.38609499 1.68766e-08
-2.95717 0.255227 1.11562e-08
-3.5146699 0.38842899 1.69786e-08
-2.9177899 0.487492 2.13088e-08
-3.48821 0.086152002 3.7657899e-09
-3.2828701 0.40525699 1.77142e-08
-3.3543701 0.532399 2.3271699e-08
-3.06197 0.349078 1.52586e-08
-3.60129 0.21556801 9.4227097e-09
-3.3125701 0.25221601 1.10246e-08
-3.3036101 0.100295 4.3840198e-09
-3.5906 0.45401099 1.9845301e-08
-3.05391 -0.088775098 -3.88044e-09
-2.94401 0.21733101 9.4997503e-09
-2.7525101 0.48170701 2.10559e-08
-3.2795601 0.33761501 1.47575e-08
-3.47083 0.43144599 1.8859e-08
-3.1460199 0.60987902 2.66584e-08
-3.71346 0.187713 8.2051104e-09
-2.85391 -0.0303216 -1.32539e-09
-3.2511499 0.34500301 1.5080399e-08
-3.3243899 0.072747402 3.1798599e-09
-2.8062799 -0.036663301 -1.6025899e-09
-3.2535501 0.85403502 3.73307e-08
-3.1433699 0.44305801 1.93665e-08
-2.71472 0.84785903 3.7060801e-08
-3.20558 0.27182001 1.18815e-08
-3.6461401 0.29054999 1.27002e-08
-3.62644 0.052464701 2.29328e-09
-3.1723399 0.151198 6.6090302e-09
-3.4709301 0.39027399 1.70592e-08
-3.2297299 0.724895 3.16859e-08
-3.2328899 0.54840398 2.39713e-08
-3.44052 -0.0562176 -2.4573199e-09
-2.8031499 -0.055143502 -2.4103699e-09
-3.4212201 0.49857199 2.1793101e-08
-3.08798 0.30557799 1.33571e-08
-2.79773 0.34989101 1.52941e-08
-3.1010699 0.59615999 2.60588e-08
-3.5097201 0.055803601 2.4392399e-09
-3.53227 0.115937 5.06772e-09
-2.96416 0.288818 1.26245e-08
-3.2357099 -0.086961098 -3.8011501e-09
-2.95364 0.36090299 1.5775401e-08
-3.47561 0.62677699 2.7397e-08
-3.2366099 0.62400901 2.72761e-08
-2.8819699 -0.0039924402 -1.74516e-10
-3.71014 0.048516899 2.12072e-09
-2.8922501 -0.096566796 -4.2210302e-09
-3.10707 0.24569701 1.07397e-08
-3.3645401 0.16483501 7.2051201e-09
-3.11462 0.61693001 2.69666e-08
-2.93206 0.106728 4.66521e-09
-2.9765401 -0.046730399 -2.0426401e-09
-3.65523 0.744847 3.2557999e-08
-2.92009 0.482815 2.1104301e-08
-3.40499 0.0304134 1.3294e-09
-3.3649199 0.59715497 2.6102301e-08
-3.67572 0.729038 3.1867e-08
-3.1010699 0.59615999 2.60588e-08
-3.05323 0.0240515 1.05132e-09
-3.4813199 0.0492342 2.1520701e-09
-3.63767 0.76898098 3.3612899e-08
-3.2520299 0.35032499 1.5313001e-08
-2.83465 -0.091005199 -3.97793e-09
-3.31287 0.65728098 2.8730399e-08
-2.88695 0.41616899 1.81912e-08
-3.5195601 0.706204 3.08689e-08
-3.6250999 0.58494598 2.55686e-08
-3.64482 0.244479 1.06864e-08
-3.6396599 0.094565198 4.1335402e-09
-3.3360801 0.46827099 2.0468599e-08
-3.4813199 0.0492342 2.1520701e-09
-3.3036101 0.100295 4.3840198e-09
-3.6780801 0.71896601 3.1426701e-08
-3.52301 0.334921 1.46398e-08
-3.5231299 0.124883 5.4587601e-09
-2.9497001 0.41981599 1.8350599e-08
-3.1275499 0.200178 8.7499696e-09
-3.39272 0.33434099 1.46144e-08
-3.63306 0.087020501 3.8037502e-09
-3.6217301 0.81857502 3.5780701e-08
-3.30299 0.74250603 3.2455699e-08
-3.0824001 0.01553 6.7883499e-10
-2.87902 0.069789097 3.05054e-09
-3.0698099 0.248482 1.08614e-08
-3.0611401 0.80958802 3.5387899e-08
-3.70173 0.177395 7.7541404e-09
-2.8132501 0.148314 6.48294e-09
-2.8561599 0.102961 4.50052e-09
-3.2920599 0.44434899 1.9422901e-08
-3.4259801 0.78150898 3.41606e-08
-3.2007101 0.531708 2.3241499e-08
-2.9875 0.204706 8.9479002e-09
-3.4244299 0.68341798 2.9872901e-08
-2.88204 0.30426899 1.32999e-08
-3.32142 0.598508 2.61614e-08
-3.2771299 0.54883999 2.3990401e-08
-3.4598899 0.26417801 1.15475e-08
-2.80427 0.12863199 5.6226099e-09
-3.3036101 0.100295 4.3840198e-09
-3.56201 0.85389298 3.7324501e-08
-3.26967 0.13043199 5.7013101e-09
-3.03159 0.18804599 8.2196898e-09
-3.2393501 0.48303899 2.1114101e-08
-2.8110199 0.134014 5.8579102e-09
-3.3374701 0.52468199 2.2934399e-08
-3.00034 0.367138 1.6048e-08
-3.17205 0.14274 6.2393299e-09
-3.4607999 0.318757 1.39332e-08
-3.52861 0.26318601 1.15041e-08
-3.1210999 0.50370997 2.20176e-08
-3.69118 0.059251402 2.58994e-09
-3.61357 0.182651 7.9838696e-09
-3.1914599 -0.0154265 -6.74309e-10
-3.0801401 0.63777202 2.7877601e-08
-3.3989 -0.0205086 -8.9645302e-10
-3.2065401 0.18586899 8.1245002e-09
-2.9512601 0.0144726 6.3261002e-10
-3.6895101 0.297205 1.29911e-08
-3.1736701 0.53595197 2.3427001e-08
-3.3659599 -0.041289899 -1.80482e-09
-2.7716 0.0271887 1.18844e-09
-3.1147399 -0.045980599 -2.0098601e-09
-2.87345 0.17838 7.7971496e-09
-3.4610701 0.23844799 1.04228e-08
-3.56721 0.352052 1.5388499e-08
-3.1347301 0.200581 8.7676e-09
-3.1305101 0.80218202 3.50642e-08
-3.25893 -0.0066654701 -2.91354e-10
-3.04182 0.38157299 1.66789e-08
-2.89591 0.441796 1.9311299e-08
-3.19168 0.21754199 9.5089598e-09
-3.1138 -0.0277567 -1.21327e-09
-3.3907299 0.48467299 2.11855e-08
-3.5743301 0.095863797 4.1903001e-09
-3.4758699 0.53754199 2.3496501e-08
-2.9103701 0.0139418 6.0940802e-10
-3.6223199 0.131162 5.7332001e-09
-3.4221301 0.821289 3.5899401e-08
-3.0876 0.49636701 2.16967e-08
-3.6498499 0.419007 1.83152e-08
-3.2625 0.86472797 3.7798099e-08
-3.1358399 0.771137 3.3707199e-08
-3.5109 -0.092344001 -4.0364498e-09
-3.5158801 0.62216902 2.71956e-08
-3.68519 0.801642 3.50406e-08
-2.98613 0.35480201 1.55088e-08
-2.7478499 0.165961 7.2543198e-09
-3.63835 0.73751301 3.2237399e-08
-3.0285599 0.37172601 1.6248499e-08
-2.81846 0.27494001 1.20179e-08
-3.4080601 0.0274937 1.20177e-09
-3.2611899 -0.0104694 -4.5762899e-10
-3.30599 -0.0605901 -2.6484599e-09
-2.9489901 0.33452201 1.46223e-08
-3.2039499 0.54788899 2.39488e-08
-3.35111 -0.129381 -5.6553602e-09
-3.6110301 0.52371001 2.28919e-08
-2.7295301 0.84924603 3.7121399e-08
-2.94157 0.056120399 2.45307e-09
-3.4402499 0.63149297 2.76032e-08
-3.6526 0.075909302 3.31807e-09
-3.6993899 0.70183098 3.06777e-08
-3.61271 0.294469 1.28715e-08
-3.28934 0.166089 7.25989e-09
-3.6963 0.137464 6.0087002e-09
-3.5357599 -0.089919902 -3.9304902e-09
-3.50491 0.170306 7.4442301e-09
-3.3139501 0.259987 1.13643e-08
-3.26685 0.764507 3.34174e-08
-3.0411601 -0.013147 -5.7466898e-10
-3.1781099 0.077974901 3.40836e-09
-3.67823 0.44726899 1.9550599e-08
-3.2506101 0.37280101 1.62955e-08
-3.0711 0.69919002 3.0562301e-08
-2.81442 0.43600199 1.9058101e-08
-3.2114899 0.61040199 2.6681301e-08
-2.8433299 0.141756 6.1963199e-09
-3.6694601 0.70664501 3.0888099e-08
-2.9154 0.25928801 1.13337e-08
-3.5446801 -0.053292401 -2.32946e-09
-3.67031 0.449072 1.96294e-08
-3.1319201 -0.0575625 -2.51611e-09
-3.0155499 0.53906298 2.3563e-08
-3.41295 0.0921195 4.0266399e-09
-3.2860501 0.40246099 1.7592001e-08
-2.99668 -0.0920849 -4.02513e-09
-3.5336499 0.47296399 2.0673699e-08
-3.34359 0.64203 2.80638e-08
-3.35585 -0.061398301 -2.6837801e-09
-3.4925499 0.62664801 2.7391399e-08
-3.2130799 0.0128996 5.6385102e-10
-3.0861101 0.26702899 1.16721e-08
-3.1329701 0.704925 3.0812998e-08
-3.0208399 0.12913799 5.6447398e-09
-3.28655 0.37669399 1.64657e-08
-2.8896799 0.39792001 1.73935e-08
-3.1889901 0.34359801 1.5018999e-08
-3.3852301 0.76810801 3.35748e-08
-3.58938 0.297429 1.30009e-08
-2.83003 -0.0139186 -6.08395e-10
-3.56499 -0.024408 -1.06689e-09
-3.1460199 0.60987902 2.66584e-08
-3.61271 0.294469 1.28715e-08
-3.3469801 0.47965601 2.0966199e-08
-3.0982599 -0.00207281 -9.0608403e-11
-3.54129 0.31248799 1.36592e-08
-3.05741 0.35856399 1.56732e-08
-3.01267 0.84686798 3.7017401e-08
-3.6691101 -0.055197999 -2.41276e-09
-3.1405599 0.798599 3.49076e-08
-3.2381599 0.51555699 2.2535501e-08
-3.3927 0.22228999 9.7165103e-09
-3.5259099 0.46680099 2.04043e-08
-3.27245 0.79409403 3.4710698e-08
-3.7133901 0.69313598 3.0297699e-08
-3.2007101 0.531708 2.3241499e-08
-3.4746399 -0.0180775 -7.9018397e-10
-3.0522699 0.82428801 3.60304e-08
-2.8141999 -0.01503 -6.5698202e-10
-3.3850901 -0.118024 -5.1589701e-09
-3.31109 0.85548598 3.7394202e-08
-3.30299 0.74250603 3.2455699e-08
-3.2485299 -0.0941502 -4.1154e-09
-3.40435 -0.044556402 -1.9476001e-09
-3.4813199 0.0492342 2.1520701e-09
-2.7658 0.100671 4.4004498e-09
-2.8605101 0.169348 7.40238e-09
-3.1888599 0.2814 1.23003e-08
-2.9403 0.295145 1.29011e-08
-3.6101 0.23721001 1.03687e-08
-3.0920999 -0.11468 -5.01276e-09
-3.24087 0.69880301 3.0545401e-08
-3.48614 -0.097415201 -4.2581201e-09
-2.7249 -0.117387 -5.13108e-09
-2.9847701 0.178499 7.8023801e-09
-3.20542 0.58832997 2.5716499e-08
-3.31493 0.79226798 3.4630801e-08
-2.7592499 -0.038100999 -1.66543e-09
-2.8373201 -0.113285 -4.9517999e-09
-3.41295 0.0921195 4.0266399e-09
-3.2529299 0.36804301 1.6087499e-08
-3.1260099 0.76679802 3.3517502e-08
-3.5292799 0.247807 1.08319e-08
-3.2272799 -0.0226455 -9.8985697e-10
-3.05722 0.0887191 3.8780001e-09
-3.3977001 0.35442799 1.54924e-08
-3.24547 0.55582702 2.4295799e-08
-2.7251699 0.159284 6.9624799e-09
-3.3576801 0.0276519 1.20869e-09
-3.60847 0.065089896 2.8451399e-09
-2.9166 0.17120101 7.4833801e-09
-3.6944301 0.136842 5.9815299e-09
-3.40065 0.43471301 1.90017e-08
-2.9082501 -0.080150798 -3.50347e-09
-3.2123301 0.79227698 3.4631199e-08
-3.3516901 0.31026 1.35618e-08
-2.8949699 0.040890299 1.78736e-09
-3.41067 0.075830199 3.3146099e-09
-2.8016701 0.227777 9.95637e-09
-3.2151899 0.021677 9.4751895e-10
-3.55019 0.57305002 2.50486e-08
-3.4230199 0.77450401 3.3854398e-08
-3.3207901 0.4903 2.14315e-08
-3.0894499 0.36492699 1.5951301e-08
-2.8641801 0.334629 1.4627e-08
-3.38572 0.75560802 3.30284e-08
-2.77163 0.488444 2.1350401e-08
-3.4907 -0.0322746 -1.41076e-09
-3.2290101 0.865897 3.7849201e-08
-3.5014601 -0.00388636 -1.69876e-10
-3.02321 -0.0069323801 -3.03022e-10
-3.35811 0.66261297 2.89635e-08
-3.07477 0.772039 3.3746598e-08
-3.37235 -0.045069002 -1.9700099e-09
-3.07459 -0.0585021 -2.55719e-09
-3.6584201 0.30022201 1.3123e-08
-3.1895399 0.29397401 1.28499e-08
-3.60133 0.412402 1.8026499e-08
-3.1752 0.60695601 2.65306e-08
-3.0311501 -0.028158899 -1.23086e-09
-3.63761 0.75375301 3.2947302e-08
-3.4755001 0.103864 4.5400101e-09
-3.17751 0.045764402 2.0004101e-09
-3.6199701 0.451509 1.97359e-08
-2.9103701 0.0139418 6.0940802e-10
-3.7043099 0.33992001 1.48583e-08
-3.2023599 0.14423899 6.3048202e-09
-2.94944 0.310792 1.3585e-08
-3.6666701 0.032206699 1.40779e-09
-3.00683 -0.051601499 -2.25555e-09
-3.08587 0.033983801 1.48547e-09
-2.76261 0.50238401 2.19597e-08
-3.1336999 0.096688896 4.2263699e-09
-3.2271399 0.848189 3.70752e-08
-3.4372001 -0.00398135 -1.7403e-10
-3.6014199 0.60356802 2.6382599e-08
-3.62837 0.20048299 8.7633198e-09
-3.5385799 0.511998 2.2379901e-08
-2.8791001 0.095900998 4.1919299e-09
-3.3456299 0.071209103 3.1126199e-09
-3.18413 0.560844 2.4515099e-08
-2.7671299 0.33910599 1.48227e-08
-3.6972499 0.763969 3.3393899e-08
-2.8884399 0.23755001 1.03836e-08
-3.45555 0.79724598 3.4848401e-08
-3.37795 0.112674 4.9250701e-09
-2.82862 0.113525 4.9623101e-09
-3.4704499 0.357876 1.5643099e-08
-3.2290101 0.865897 3.7849201e-08
-2.7186301 0.192619 8.4195904e-09
-3.00771 0.103453 4.5220401e-09
-3.6510401 0.212063 9.2694803e-09
-3.5297799 0.76650298 3.3504602e-08
-3.0908201 -0.111349 -4.8671902e-09
-3.5102501 0.53386003 2.3335501e-08
-3.7019999 0.74906898 3.2742602e-08
-3.401 0.60881102 2.66117e-08
-3.1893799 -0.094692998 -4.1391299e-09
-3.1275499 0.200178 8.7499696e-09
-3.4670701 0.248944 1.08816e-08
-3.33178 0.312628 1.36653e-08
-3.60133 0.412402 1.8026499e-08
-3.6391499 0.85622197 3.74263e-08
-3.6431201 0.250581 1.09531e-08
-2.9049799 0.00018775499 8.2032202e-12
-3.0525701 0.45657101 1.99572e-08
-3.5188501 0.41360801 1.80792e-08
-3.7134099 0.118783 5.1921401e-09
-2.99212 0.45312101 1.98064e-08
-3.66923 0.19671699 8.5987004e-09
-3.67629 0.046928499 2.05129e-09
-3.41467 0.101652 4.4433199e-09
-3.6480801 0.100411 4.3890598e-09
-3.4618499 0.132257 5.7810601e-09
-3.2741101 0.32739499 1.43107e-08
-3.19805 0.390986 1.70904e-08
-3.4319999 0.245171 1.07167e-08
-2.94944 0.310792 1.3585e-08
-3.3457501 0.068879202 3.0107801e-09
-3.2694399 0.433709 1.8957801e-08
-2.7188699 -0.0578622 -2.52921e-09
-3.69859 0.695885 3.0417802e-08
-3.3939199 0.131091 5.7301199e-09
-3.41067 0.075830199 3.3146099e-09
-3.4205699 0.428619 1.8735401e-08
-3.70383 0.034538001 1.50969e-09
-3.1340899 0.68588197 2.9980601e-08
-3.12747 0.36252201 1.5846201e-08
-3.13855 0.77342302 3.3807101e-08
-2.9818101 0.46419799 2.02905e-08
-3.1760399 -0.11216 -4.9026299e-09
-2.83179 -0.0190679 -8.3347701e-10
-3.7044899 0.181311 7.9253004e-09
-3.6963301 0.25284901 1.10523e-08
-3.26373 0.44520199 1.9460201e-08
-3.0099699 0.232454 1.01608e-08
-2.74564 0.0148196 6.47777e-10
-3.3819699 0.47743699 2.08692e-08
-3.3824601 0.52139002 2.27905e-08
-3.4287601 0.78871298 3.4475502e-08
-2.8522699 0.357274 1.56168e-08
-3.3141501 0.32675001 1.42825e-08
-3.62257 0.15580501 6.8103798e-09
-3.27599 0.84458798 3.69178e-08
-3.20753 -0.046838202 -2.0473401e-09
-3.5079501 0.402419 1.75901e-08
-3.0411601 -0.013147 -5.7466898e-10
-3.0889499 0.19509199 8.5276497e-09
-3.2557299 0.781021 3.4139202e-08
-3.3608601 0.47746599 2.08705e-08
-3.5849099 0.52272397 2.28488e-08
-2.7248099 -0.067716002 -2.9599401e-09
-3.63292 0.0072392202 3.1643699e-10
-3.11813 0.51865 2.2670701e-08
-2.9895 -0.043028802 -1.8808399e-09
-3.1853399 -0.079061396 -3.45586e-09
-3.1110599 0.18066999 7.8972597e-09
-3.5636799 0.69012201 3.01659e-08
-2.79212 0.0156976 6.8615302e-10
-3.3429301 -0.113034 -4.9408202e-09
-3.5471399 0.77600598 3.3919999e-08
-3.36005 0.78533697 3.4327901e-08
-3.5086401 0.72519398 3.1698999e-08
-3.1519599 0.74997002 3.2781902e-08
-3.5998399 0.29474699 1.28837e-08
-3.0034001 0.0423797 1.85246e-09
-3.0097301 0.462576 2.02197e-08
-3.0418999 0.20056801 8.76702e-09
-3.6803899 0.369333 1.61439e-08
-3.2990201 -0.030599499 -1.33753e-09
-3.6669099 0.84871697 3.70983e-08
-2.8244901 0.071982503 3.14643e-09
-2.7797401 -0.043291599 -1.8923201e-09
-3.4284799 0.848194 3.7075399e-08
-3.6010799 0.72840202 3.18392e-08
-2.7827699 0.034005199 1.4864e-09
-3.5592201 0.51518601 2.25193e-08
-3.7118499 0.47049701 2.0565899e-08
-3.3209 0.41781101 1.8262901e-08
-2.8062799 -0.036663301 -1.6025899e-09
-3.3002999 0.73381197 3.2075601e-08
-2.98469 0.170139 7.4369302e-09
-3.2783999 0.452277 1.97695e-08
-2.9818101 0.46419799 2.02905e-08
-3.6890299 0.44789299 1.9577801e-08
-2.8952999 0.395587 1.72915e-08
-3.2535501 0.85403502 3.73307e-08
-3.4454401 0.0166768 7.28964e-10
-2.7486 -0.127167 -5.55861e-09
-2.95805 0.271034 1.18471e-08
-2.94169 0.0331081 1.44718e-09
-3.07584 0.188482 8.2387199e-09
-3.6322401 0.737764 3.2248401e-08
-3.2661901 -0.0551503 -2.4106701e-09
-3.3540299 0.31487301 1.37634e-08
-3.4695001 0.381046 1.66559e-08
-3.6733401 0.71498698 3.1252799e-08
-2.7355299 0.24007501 1.04939e-08
-2.96156 0.49446601 2.16136e-08
-3.14802 0.17129 7.4872402e-09
-2.9895 -0.043028802 -1.8808399e-09
-2.8345799 -0.00606251 -2.6499999e-10
-2.7233 0.34502 1.50812e-08
-3.5822899 0.0117232 5.1243498e-10
-3.3125701 0.25221601 1.10246e-08
-2.95281 -0.026733899 -1.16857e-09
-3.2463801 0.85095298 3.7195999e-08
-2.79374 0.46042499 2.01257e-08
-3.69294 -0.0134742 -5.8897198e-10
-3.25455 -0.067021303 -2.9295599e-09
-3.49259 0.81089598 3.5445101e-08
-3.4059999 0.0315657 1.37977e-09
-3.2348101 0.48034799 2.0996501e-08
-3.50014 0.303363 1.32603e-08
-3.3136699 0.75571197 3.3032901e-08
-3.299 0.50859898 2.2231401e-08
-3.62252 0.57872802 2.5296799e-08
-3.54491 0.0202055 8.8320101e-10
-3.1851399 0.074836597 3.27119e-09
-3.2038801 0.79643202 3.48128e-08
-3.2869401 0.128846 5.6320002e-09
-3.0817299 0.349006 1.52554e-08
-2.8296101 0.106665 4.66243e-09
-2.7802601 0.35283601 1.5422801e-08
-3.2372501 0.77731299 3.3977098e-08
-3.6673901 0.55450499 2.4238e-08
-2.7532599 0.181435 7.9307103e-09
-3.5989101 0.124144 5.4264602e-09
-3.3145101 0.47762501 2.0877501e-08
-3.1519599 0.74997002 3.2781902e-08
-3.70312 0.47516701 2.0770001e-08
-3.62483 0.146541 6.4054699e-09
-3.0913 0.512371 2.23963e-08
-3.4105101 0.51269501 2.2410401e-08
-3.1564 0.068831302 3.00868e-09
-3.06932 0.0513805 2.2458899e-09
-3.6688099 0.0127829 5.5875299e-10
-3.41609 0.166076 7.25933e-09
-3.5361199 0.051365301 2.24523e-09
-3.24242 0.40110099 1.75325e-08
-3.4900801 0.215269 9.4096198e-09
-3.1461201 0.34722 1.5177299e-08
-3.0363901 0.84515899 3.6942801e-08
