# .PCD v0.7 - Point Cloud Data file format
VERSION 0.7
FIELDS x y z
SIZE 4 4 4
TYPE F F F
COUNT 1 1 1
WIDTH 1717
HEIGHT 1
VIEWPOINT 0 0 0 1 0 0 0
POINTS 1717
DATA ascii
4.6988201 1.21359 2.99301
4.6988201 1.85895 1.78801
4.6988201 1.45143 2.46383
4.6988201 1.72504 1.58002
4.6988201 1.8516001 1.62135
4.6988201 1.2187901 0.85934103
4.6988201 0.87089902 0.66041499
4.6988201 1.72589 0.37766799
4.6988201 1.8667901 0.50555098
4.6988201 1.09097 1.27903
4.6988201 0.97406203 1.82056
4.6988201 1.01027 0.277971
4.6988201 0.95690501 1.09473
4.6988201 0.93551999 1.75077
4.6988201 1.52262 0.20462599
4.6988201 0.89367098 2.37376
4.6988201 1.14824 0.62416798
4.6988201 1.13485 0.98162901
4.6988201 1.50108 2.5791199
4.6988201 1.10384 0.92682499
4.6988201 1.33451 1.6526
4.6988201 1.22879 0.85532701
4.6988201 1.8651299 0.205836
4.6988201 1.33908 1.81007
4.6988201 1.43011 0.89638197
4.6988201 1.70742 2.6745701
4.6988201 0.98345 1.23839
4.6988201 1.54909 2.3708999
4.6988201 1.49471 0.202342
4.6988201 0.90224099 1.86929
4.6988201 1.72268 2.74087
4.6988201 1.12049 1.82889
4.6988201 1.44209 0.14315701
4.6988201 1.50857 0.069917001
4.6988201 1.35019 0.32250199
4.6988201 1.27763 0.396393
4.6988201 1.5599999 2.64116
4.6988201 1.19916 1.69163
4.6988201 1.51428 1.02534
4.6988201 1.15784 2.87269
4.6988201 1.31978 0.77350998
4.6988201 1.57732 1.70489
4.6988201 1.3136801 0.26193801
4.6988201 1.5298001 1.64325
4.6988201 1.04783 1.25699
4.6988201 1.77183 1.65034
4.6988201 0.87739497 1.8775899
4.6988201 1.83039 0.0693359
4.6988201 1.26168 0.61189401
4.6988201 1.55863 2.6505799
4.6988201 1.65681 2.4770999
4.6988201 1.32939 0.85617602
4.6988201 1.34526 0.84605199
4.6988201 1.30381 0.30972299
4.6988201 0.912489 0.31997401
4.6988201 1.02645 2.9600599
4.6988201 1.76544 1.68862
4.6988201 1.66154 1.26134
4.6988201 1.6869299 2.5069599
4.6988201 1.31034 1.56513
4.6988201 1.36799 1.06888
4.6988201 1.03479 1.30023
4.6988201 1.1132801 1.51518
4.6988201 1.19003 1.18986
4.6988201 1.56618 1.53105
4.6988201 1.44566 1.5195
4.6988201 1.40443 0.71164602
4.6988201 0.91453499 1.51507
4.6988201 1.2386301 0.72879303
4.6988201 0.92753297 1.58489
4.6988201 1.40696 0.053918298
4.6988201 1.0771101 1.34241
4.6988201 1.37922 2.45086
4.6988201 1.54968 2.44485
4.6988201 1.58178 2.7353101
4.6988201 1.28552 0.18650299
4.6988201 1.35998 1.53574
4.6988201 0.99920702 0.65375799
4.6988201 1.02228 2.85022
4.6988201 1.5667599 2.49245
4.6988201 1.13195 3.0332799
4.6988201 1.44164 0.25377801
4.6988201 1.22698 0.89441198
4.6988201 1.08816 0.294379
4.6988201 1.62985 1.4484
4.6988201 1.14475 1.83825
4.6988201 1.7575999 0.34186399
4.6988201 1.48605 1.73326
4.6988201 1.1735899 3.0136399
4.6988201 1.53676 0.110161
4.6988201 0.94668603 2.9082999
4.6988201 0.91634703 0.797979
4.6988201 1.39123 1.80481
4.6988201 1.3601201 0.449386
4.6988201 1.22463 1.20276
4.6988201 1.29752 1.6810499
4.6988201 1.32102 1.83223
4.6988201 0.94182599 1.21328
4.6988201 1.45576 1.0703501
4.6988201 0.97688502 1.13164
4.6988201 1.79269 1.56539
4.6988201 1.48441 2.4955399
4.6988201 1.39424 2.28935
4.6988201 1.7812001 2.4799099
4.6988201 0.90980798 1.75901
4.6988201 1.29284 0.39239299
4.6988201 1.43059 0.486222
4.6988201 1.14218 2.83864
4.6988201 1.07381 1.7614501
4.6988201 1.2278301 1.9402601
4.6988201 1.22645 1.80898
4.6988201 1.38141 2.4423699
4.6988201 1.06547 1.57884
4.6988201 1.12214 1.59525
4.6988201 1.70785 2.94923
4.6988201 1.1844701 1.05027
4.6988201 1.59215 2.79527
4.6988201 1.1619101 0.107822
4.6988201 1.06909 1.6769
4.6988201 1.32487 1.18128
4.6988201 1.71527 1.44137
4.6988201 1.03615 1.85001
4.6988201 1.58701 1.40803
4.6988201 1.3415 0.78796601
4.6988201 1.29983 0.72276598
4.6988201 1.4367599 0.81868201
4.6988201 1.00858 1.0620199
4.6988201 1.27879 1.40528
4.6988201 1.45644 1.13805
4.6988201 1.39184 0.64960998
4.6988201 1.12363 3.0026
4.6988201 0.993249 2.43888
4.6988201 1.39688 0.66793901
4.6988201 1.5115401 2.6349101
4.6988201 1.83099 2.6012001
4.6988201 1.6368099 1.44225
4.6988201 0.971187 1.30328
4.6988201 1.12788 0.19419
4.6988201 0.94273698 0.38861799
4.6988201 1.4444 0.48183101
4.6988201 1.31181 1.3464299
4.6988201 1.21395 0.213664
4.6988201 0.923374 1.65546
4.6988201 0.95243597 1.89253
4.6988201 1.30568 1.14764
4.6988201 1.08284 1.6204
4.6988201 1.36792 0.43749699
4.6988201 1.48348 2.47685
4.6988201 1.05618 1.26513
4.6988201 1.15783 2.9881799
4.6988201 1.81549 1.44526
4.6988201 1.33085 2.9960999
4.6988201 1.57656 1.68747
4.6988201 0.94686902 1.2287199
4.6988201 1.2278 1.6576101
4.6988201 1.29232 0.97661
4.6988201 1.05318 1.25704
4.6988201 1.80963 2.75703
4.6988201 1.00497 0.327483
4.6988201 1.4073499 0.188127
4.6988201 1.27186 0.831361
4.6988201 1.74209 2.58441
4.6988201 1.5429699 2.4672401
4.6988201 0.902542 0.75504798
4.6988201 1.18751 0.504673
4.6988201 1.55267 0.105519
4.6988201 1.42203 2.3935001
4.6988201 0.992814 0.79156202
4.6988201 1.64621 0.153145
4.6988201 1.0219001 0.97468001
4.6988201 1.84219 0.32748899
4.6988201 1.05012 0.28172201
4.6988201 1.30597 0.73823297
4.6988201 1.05633 1.6713901
4.6988201 1.39773 0.79323
4.6988201 0.87873697 1.10173
4.6988201 1.4472899 0.19228201
4.6988201 1.35484 2.3112299
4.6988201 1.32672 1.80352
4.6988201 1.65678 1.40715
4.6988201 0.92248398 0.35196301
4.6988201 1.82535 1.57337
4.6988201 1.31306 1.2589999
4.6988201 1.0877 2.96545
4.6988201 0.98991299 1.79166
4.6988201 1.40834 1.06256
4.6988201 1.53676 2.38112
4.6988201 1.12023 2.4596901
4.6988201 1.8423899 0.507312
4.6988201 1.01954 1.83327
4.6988201 1.03671 0.61749297
4.6988201 0.93138099 1.88788
4.6988201 1.75703 1.40809
4.6988201 1.3615201 1.22284
4.6988201 1.25 2.43311
4.6988201 0.93911803 0.93169898
4.6988201 1.05654 1.18828
4.6988201 1.22733 0.65255201
4.6988201 1.5443799 2.46048
4.6988201 1.19428 1.79325
4.6988201 1.76097 2.65781
4.6988201 1.63796 2.7374899
4.6988201 1.27907 1.93595
4.6988201 1.82394 1.62055
4.6988201 1.17862 1.84514
4.6988201 1.01017 1.40346
4.6988201 1.3842601 0.121098
4.6988201 1.22874 2.8849001
4.6988201 1.03632 1.53019
4.6988201 0.941378 2.28564
4.6988201 1.13036 0.29634199
4.6988201 1.10744 2.80759
4.6988201 1.57305 2.7368901
4.6988201 1.78414 2.60763
4.6988201 1.44785 1.36787
4.6988201 1.7075 1.48136
4.6988201 1.41363 0.47390601
4.6988201 1.06398 1.70096
4.6988201 1.20011 0.58782703
4.6988201 1.27158 1.28562
4.6988201 1.3500201 2.1854
4.6988201 1.51747 1.20435
4.6988201 0.99504298 1.58667
4.6988201 1.8538001 1.59342
4.6988201 1.04214 1.15236
4.6988201 0.92230302 0.656317
4.6988201 1.51834 1.511
4.6988201 0.920026 2.98753
4.6988201 1.21009 1.3717901
4.6988201 1.2156399 1.73351
4.6988201 1.86213 1.37205
4.6988201 1.0272599 0.69123
4.6988201 1.74421 2.7360899
4.6988201 1.08927 0.86999601
4.6988201 1.2235399 2.95274
4.6988201 1.4942501 1.68268
4.6988201 1.4776599 1.115
4.6988201 1.38033 1.65298
4.6988201 1.35183 1.54469
4.6988201 1.26182 2.9103301
4.6988201 0.88955599 1.15731
4.6988201 1.00843 1.4834599
4.6988201 0.90445298 1.66714
4.6988201 1.40544 0.34719101
4.6988201 1.5189 2.4061799
4.6988201 1.5252 0.19676501
4.6988201 1.23066 1.70131
4.6988201 0.901205 0.69925499
4.6988201 1.73444 0.27497801
4.6988201 1.65057 2.6890299
4.6988201 1.83718 1.62365
4.6988201 1.08638 1.42161
4.6988201 1.74905 2.4636199
4.6988201 1.61243 1.73765
4.6988201 1.2338901 0.0773293
4.6988201 1.36614 0.453814
4.6988201 1.53961 0.91103798
4.6988201 0.96818203 1.42653
4.6988201 1.24687 0.150482
4.6988201 1.68419 2.4713199
4.6988201 1.64042 0.225885
4.6988201 1.65012 2.4758201
4.6988201 1.22111 1.08565
4.6988201 1.66113 1.53178
4.6988201 1.8089401 0.37116399
4.6988201 1.72237 0.159869
4.6988201 1.1761 0.63467002
4.6988201 0.93516999 2.32199
4.6988201 1.12019 0.83775997
4.6988201 1.53421 2.5644801
4.6988201 1.31146 1.30854
4.6988201 1.18999 0.58877301
4.6988201 1.83088 1.50647
4.6988201 0.89050901 0.341966
4.6988201 1.7776999 1.44894
4.6988201 0.88483697 1.44216
4.6988201 1.20718 2.9783001
4.6988201 1.3469599 0.44717199
4.6988201 1.35969 1.10581
4.6988201 1.17862 1.84514
4.6988201 1.83421 3.0190001
4.6988201 0.98651397 0.78614599
4.6988201 1.5894901 1.69713
4.6988201 1.50368 1.63179
4.6988201 1.38406 0.65127301
4.6988201 1.79728 1.73151
4.6988201 1.81633 2.7642601
4.6988201 1.7336 2.97139
4.6988201 1.78863 0.37010199
4.6988201 1.77183 1.65034
4.6988201 1.25699 0.55842799
4.6988201 1.19601 0.92619801
4.6988201 1.37939 0.85773802
4.6988201 1.76684 2.46085
4.6988201 1.31233 0.691212
4.6988201 1.0958101 0.257833
4.6988201 1.08175 1.6079201
4.6988201 1.20418 0.69155997
4.6988201 1.05795 0.28537101
4.6988201 1.14359 0.93176699
4.6988201 1.40185 0.98022598
4.6988201 1.63934 1.26605
4.6988201 1.09593 1.66818
4.6988201 0.95400202 0.57319301
4.6988201 1.68419 2.4713199
4.6988201 1.2531199 0.64948499
4.6988201 0.95545501 1.14415
4.6988201 1.31949 1.1061701
4.6988201 1.14922 1.42581
4.6988201 1.24766 0.115829
4.6988201 1.4683501 0.252233
4.6988201 1.03072 1.0455199
4.6988201 0.88216799 2.9118299
4.6988201 1.2053699 0.33689901
4.6988201 1.52226 1.77758
4.6988201 0.96981698 1.1418999
4.6988201 1.49791 1.57502
4.6988201 1.57339 1.603
4.6988201 1.13454 0.759085
4.6988201 0.89959002 1.39103
4.6988201 1.1052901 0.204403
4.6988201 1.22932 1.88753
4.6988201 1.0482301 1.31024
4.6988201 1.39204 0.88705897
4.6988201 0.918818 2.28179
4.6988201 1.7345901 1.61639
4.6988201 0.891204 0.59136599
4.6988201 1.2609299 1.08113
4.6988201 1.84779 2.9309101
4.6988201 0.87181902 2.98562
4.6988201 0.89419401 2.2604201
4.6988201 1.02151 0.58880901
4.6988201 1.4371901 1.15072
4.6988201 1.2839299 0.67021102
4.6988201 1.11733 0.77176702
4.6988201 1.4010299 1.54763
4.6988201 1.23101 0.63999498
4.6988201 1.4622999 1.53869
4.6988201 1.23243 1.7971801
4.6988201 1.50684 1.31991
4.6988201 1.3331 0.28800899
4.6988201 1.00808 1.48823
4.6988201 1.34716 2.2026501
4.6988201 1.60822 1.21515
4.6988201 1.05334 0.26474801
4.6988201 1.1664701 1.10526
4.6988201 1.36973 1.6927
4.6988201 1.42655 0.45305601
4.6988201 1.24699 2.93576
4.6988201 1.82651 2.70837
4.6988201 1.40683 0.51200598
4.6988201 1.3793499 0.134306
4.6988201 1.00675 1.71995
4.6988201 1.71012 0.30431801
4.6988201 1.12731 1.2465
4.6988201 1.2129101 0.94102597
4.6988201 0.96548802 0.95392001
4.6988201 1.17489 1.06467
4.6988201 1.82541 3.0227201
4.6988201 0.97987801 0.54839802
4.6988201 1.01326 0.98040098
4.6988201 1.5399899 1.67303
4.6988201 0.949117 3.0390899
4.6988201 1.3071001 2.42625
4.6988201 1.70135 0.23386601
4.6988201 1.25061 1.1794
4.6988201 1.61208 0.356489
4.6988201 1.07065 0.201836
4.6988201 1.34621 1.88055
4.6988201 1.793 0.360724
4.6988201 0.98954999 0.77407998
4.6988201 1.1135 1.5318201
4.6988201 0.92369097 0.26153201
4.6988201 1.25665 1.27145
4.6988201 1.09421 1.64671
4.6988201 1.64659 1.68373
4.6988201 1.06959 2.96171
4.6988201 1.70644 2.71579
4.6988201 1.18494 0.71862501
4.6988201 1.64011 1.37204
4.6988201 0.88034201 1.31405
4.6988201 1.16039 2.8380301
4.6988201 1.02648 1.55646
4.6988201 1.75326 1.32061
4.6988201 1.04989 1.52674
4.6988201 1.16561 0.183751
4.6988201 1.71707 1.55082
4.6988201 0.87415498 0.26644999
4.6988201 1.17558 0.390627
4.6988201 1.11286 2.4598999
4.6988201 1.7812001 2.4799099
4.6988201 1.22988 0.96678501
4.6988201 1.17488 0.32181799
4.6988201 1.11684 0.35404801
4.6988201 1.14938 0.80803001
4.6988201 1.02414 0.56727302
4.6988201 1.1407 1.6809601
4.6988201 1.8089401 0.37116399
4.6988201 1.18811 1.2350399
4.6988201 1.39797 0.91338402
4.6988201 1.2670799 0.43487701
4.6988201 1.4531 1.1215301
4.6988201 1.0379601 0.32217601
4.6988201 1.19403 0.95819598
4.6988201 1.05 0.411255
4.6988201 1.57726 2.3970201
4.6988201 1.83895 0.470173
4.6988201 1.68419 2.4713199
4.6988201 1.45898 2.4329
4.6988201 1.06101 1.6871099
4.6988201 1.8343199 0.41058499
4.6988201 1.0267299 0.26143101
4.6988201 1.08181 0.32091001
4.6988201 1.36084 1.0877301
4.6988201 1.46763 1.54577
4.6988201 1.59566 0.37701699
4.6988201 1.1485699 0.65898699
4.6988201 1.81823 2.76196
4.6988201 1.83162 0.111408
4.6988201 1.04059 1.44557
4.6988201 1.79778 3.0058
4.6988201 1.136 0.91147399
4.6988201 1.27868 0.65268898
4.6988201 1.6524301 1.2880501
4.6988201 1.2678 0.30721799
4.6988201 1.39566 0.056260601
4.6988201 1.21665 0.86875999
4.6988201 1.44554 1.7379
4.6988201 0.937796 1.43629
4.6988201 1.34577 1.3018301
4.6988201 0.92379802 1.834
4.6988201 0.90081799 2.92489
4.6988201 0.97887099 1.71966
4.6988201 1.19628 0.679196
4.6988201 0.87220401 0.42866901
4.6988201 1.81823 2.76196
4.6988201 1.2366199 0.86407602
4.6988201 1.38878 1.75729
4.6988201 1.3275501 2.3712201
4.6988201 1.4855601 0.085213996
4.6988201 1.40519 0.158271
4.6988201 1.59146 1.53509
4.6988201 1.3954901 1.35269
4.6988201 1.73417 1.35499
4.6988201 1.46507 2.4168701
4.6988201 1.54923 1.77871
4.6988201 1.01387 1.38914
4.6988201 1.23271 2.87341
4.6988201 1.13164 0.36403501
4.6988201 1.69927 0.33899501
4.6988201 1.41333 0.278629
4.6988201 1.76191 0.36695999
4.6988201 1.3715301 0.79192102
4.6988201 1.85463 0.34303099
4.6988201 1.50688 1.7346801
4.6988201 1.24439 1.659
4.6988201 1.60859 1.63677
4.6988201 0.91825497 1.5132101
4.6988201 1.33986 0.42017299
4.6988201 1.12437 0.62717998
4.6988201 1.55451 1.0657001
4.6988201 1.3741 1.16186
4.6988201 1.21795 0.988343
4.6988201 1.35783 0.96667397
4.6988201 0.88836402 1.51077
4.6988201 1.02771 1.26446
4.6988201 0.905222 1.77967
4.6988201 1.29623 1.1446199
4.6988201 1.23271 2.87341
4.6988201 1.6023099 1.3653899
4.6988201 1.76712 2.5643899
4.6988201 1.0958101 0.257833
4.6988201 0.985982 0.466286
4.6988201 1.2565 0.74360299
4.6988201 1.7718 2.60357
4.6988201 1.7575999 0.34186399
4.6988201 1.34015 1.6009099
4.6988201 0.90144497 0.488267
4.6988201 1.77563 1.38752
4.6988201 1.12916 2.8968899
4.6988201 1.3619601 1.83939
4.6988201 0.96914798 2.35818
4.6988201 1.1363699 0.85268903
4.6988201 1.06062 0.89958203
4.6988201 1.08548 0.41105899
4.6988201 1.07965 2.46945
4.6988201 1.63513 1.54048
4.6988201 1.6357599 2.52075
4.6988201 1.27233 3.0369599
4.6988201 1.2067 0.92075598
4.6988201 0.90874702 0.859119
4.6988201 1.04611 2.97065
4.6988201 1.58697 2.6663401
4.6988201 1.64631 1.6841201
4.6988201 0.918477 1.266
4.6988201 1.32242 1.34987
4.6988201 1.75304 1.32737
4.6988201 1.27654 2.0782199
4.6988201 1.48913 0.46370101
4.6988201 1.37033 2.2653699
4.6988201 0.96868998 0.478165
4.6988201 1.43334 1.15609
4.6988201 0.93200803 1.36847
4.6988201 1.52262 0.20462599
4.6988201 1.01011 1.7745
4.6988201 1.42249 1.24947
4.6988201 0.98777902 2.91536
4.6988201 1.31949 1.1061701
4.6988201 1.19412 3.0332799
4.6988201 0.90839601 1.68899
4.6988201 1.08284 1.72535
4.6988201 1.02279 2.8731899
4.6988201 0.93909198 1.07774
4.6988201 1.38088 0.130731
4.6988201 0.987849 2.40516
4.6988201 1.21022 1.6299
4.6988201 1.07559 0.548581
4.6988201 1.28865 1.0845
4.6988201 1.2341501 1.62727
4.6988201 1.75449 1.55269
4.6988201 1.50368 1.63179
4.6988201 0.995112 0.412911
4.6988201 1.16638 0.181435
4.6988201 1.0738 0.78965002
4.6988201 1.2961 0.94232702
4.6988201 1.34117 1.3579
4.6988201 1.61239 1.30419
4.6988201 1.00727 2.8689401
4.6988201 1.39363 0.482694
4.6988201 1.2790101 1.8994401
4.6988201 1.13963 1.2532901
4.6988201 0.94324303 1.7628599
4.6988201 1.6027 2.4238701
4.6988201 0.96916503 1.29309
4.6988201 1.3071001 2.42625
4.6988201 1.4260401 1.49339
4.6988201 1.47807 0.86628598
4.6988201 1.39492 2.38135
4.6988201 1.66901 1.37747
4.6988201 1.09244 1.32357
4.6988201 1.57305 2.7368901
4.6988201 1.09345 1.80608
4.6988201 1.64702 0.19266599
4.6988201 1.07345 2.8418
4.6988201 1.30348 1.4105
4.6988201 1.24869 1.23783
4.6988201 1.8314199 1.66149
4.6988201 1.32874 2.41155
4.6988201 1.65101 1.40532
4.6988201 1.84228 0.46502
4.6988201 1.5897501 0.91533101
4.6988201 1.2783999 0.92802298
4.6988201 0.87848502 0.45987999
4.6988201 1.32953 2.9478099
4.6988201 1.47742 0.78707498
4.6988201 1.2008801 0.134964
4.6988201 1.11286 0.49754101
4.6988201 1.31555 0.216718
4.6988201 1.20436 0.533876
4.6988201 1.02495 2.8298299
4.6988201 1.35137 0.38148901
4.6988201 1.49432 0.36777201
4.6988201 1.83461 0.164906
4.6988201 1.67716 2.51823
4.6988201 1.19216 2.8736899
4.6988201 1.46306 0.92875898
4.6988201 1.1135 1.5318201
4.6988201 0.88883501 1.05349
4.6988201 1.81019 3.0346501
4.6988201 0.87870097 1.4969701
4.6988201 1.05984 0.83838999
4.6988201 1.19121 1.16275
4.6988201 1.8084 2.8908899
4.6988201 0.89419401 2.2604201
4.6988201 1.23447 1.26147
4.6988201 0.99460697 1.7592
4.6988201 1.82985 0.056728899
4.6988201 1.5074 1.53319
4.6988201 1.30568 1.14764
4.6988201 1.32487 1.30334
4.6988201 1.3034101 1.13432
4.6988201 1.12356 1.18574
4.6988201 1.60646 2.7788601
4.6988201 0.953031 1.8142
4.6988201 1.81452 0.109259
4.6988201 1.58961 0.14019901
4.6988201 1.03671 0.61749297
4.6988201 1.12011 1.1542799
4.6988201 1.50474 1.53786
4.6988201 1.69776 0.235608
4.6988201 0.93194997 0.37944299
4.6988201 1.8603801 2.78758
4.6988201 1.3834701 0.41476399
4.6988201 0.89535302 0.264714
4.6988201 1.69367 2.8894601
4.6988201 0.88841301 1.1812201
4.6988201 1.73557 1.50682
4.6988201 1.8423899 0.507312
4.6988201 1.27859 0.90100801
4.6988201 0.900365 0.53098297
4.6988201 1.26478 1.7340699
4.6988201 1.68556 0.373319
4.6988201 1.21984 1.92694
4.6988201 0.97998101 0.30702701
4.6988201 1.51521 2.7937901
4.6988201 1.5737799 1.68431
4.6988201 1.00843 1.4834599
4.6988201 1.13006 2.8970499
4.6988201 1.4593199 0.24796601
4.6988201 0.95021498 1.69907
4.6988201 1.01955 2.89832
4.6988201 0.929254 0.225178
4.6988201 1.53399 2.62046
4.6988201 1.60241 1.32164
4.6988201 1.74225 0.33380899
4.6988201 1.16134 0.214764
4.6988201 1.38585 1.78416
4.6988201 1.4209 0.88133299
4.6988201 1.8383501 1.66447
4.6988201 1.54135 1.3694
4.6988201 1.0454201 0.483046
4.6988201 1.55545 1.62682
4.6988201 1.66511 1.61587
4.6988201 1.23704 0.42119899
4.6988201 1.17435 0.130942
4.6988201 0.98604202 0.55502498
4.6988201 1.3477 1.29167
4.6988201 1.21399 2.86573
4.6988201 1.3155 0.84715497
4.6988201 1.78579 2.84849
4.6988201 1.32289 0.56531602
4.6988201 1.61173 0.26521799
4.6988201 1.31396 1.54897
4.6988201 1.74525 1.3690701
4.6988201 1.29256 1.3187701
4.6988201 1.41646 1.44648
4.6988201 1.22732 0.0849628
4.6988201 0.96139503 0.65530699
4.6988201 1.16677 1.0826499
4.6988201 1.7345901 1.61639
4.6988201 1.01814 2.96524
4.6988201 1.74211 1.6247
4.6988201 1.23703 0.570122
4.6988201 0.96648401 0.66190398
4.6988201 1.02347 1.54056
4.6988201 1.74889 2.94361
4.6988201 1.16873 2.97562
4.6988201 1.43066 0.30552599
4.6988201 1.05187 0.88387501
4.6988201 1.83605 0.30959401
4.6988201 1.78372 1.32988
4.6988201 0.920026 2.98753
4.6988201 1.57022 0.265802
4.6988201 1.78336 1.74308
4.6988201 1.13622 1.25468
4.6988201 1.17566 0.0590402
4.6988201 1.2519701 1.2040499
4.6988201 1.72504 1.58002
4.6988201 1.36639 0.93520302
4.6988201 0.95888901 0.393778
4.6988201 1.7936 1.48909
4.6988201 1.32385 0.52001202
4.6988201 1.74351 1.3364201
4.6988201 1.49389 1.19734
4.6988201 1.41434 1.57874
4.6988201 1.20007 1.21568
4.6988201 1.17395 1.24731
4.6988201 1.59146 1.53509
4.6988201 1.20994 0.915721
4.6988201 1.00596 0.64684701
4.6988201 1.30647 1.93984
4.6988201 1.46861 0.32610101
4.6988201 0.88218099 0.204684
4.6988201 1.51482 2.6621301
4.6988201 0.97002602 1.1842901
4.6988201 1.57831 2.7886901
4.6988201 1.08284 1.6204
4.6988201 0.995 0.89263999
4.6988201 1.0278701 1.68104
4.6988201 1.27186 0.831361
4.6988201 1.43945 0.406147
4.6988201 1.1197701 0.46443799
4.6988201 1.8117 0.26294801
4.6988201 0.94037402 0.282592
4.6988201 1.28588 1.69025
4.6988201 1.53353 2.4396801
4.6988201 0.89895201 1.0080301
4.6988201 1.48589 0.087973401
4.6988201 1.48769 1.07743
4.6988201 1.71666 1.6705199
4.6988201 1.86722 0.464463
4.6988201 1.84726 1.6741101
4.6988201 1.21483 1.0788701
4.6988201 1.58723 2.5350499
4.6988201 0.92045897 1.64586
4.6988201 1.79219 2.52792
4.6988201 0.90723401 1.2132
4.6988201 1.08486 0.52002901
4.6988201 1.5895801 1.24725
4.6988201 1.02624 0.99639899
4.6988201 0.87607598 2.24544
4.6988201 1.02795 2.79444
4.6988201 1.01845 1.06014
4.6988201 1.50857 0.069917001
4.6988201 1.0608 0.55318099
4.6988201 1.12984 1.64253
4.6988201 1.51059 1.46664
4.6988201 1.2584 1.14259
4.6988201 1.71138 2.9509301
4.6988201 1.61956 0.35327399
4.6988201 1.35646 0.75004399
4.6988201 1.39922 1.71922
4.6988201 0.96930701 0.81133503
4.6988201 1.0346 0.36640099
4.6988201 0.94557798 1.74725
4.6988201 1.15536 2.96983
4.6988201 1.42249 1.24947
4.6988201 1.02775 2.9339001
4.6988201 0.90980798 1.75901
4.6988201 1.31949 2.4172299
4.6988201 1.39797 0.91338402
4.6988201 1.11484 0.38107401
4.6988201 1.45202 0.396642
4.6988201 1.55503 2.5551
4.6988201 1.44996 1.35175
4.6988201 1.54971 2.5283401
4.6988201 1.08562 2.52267
4.6988201 1.7228 2.70525
4.6988201 0.97657102 1.16412
4.6988201 1.28157 0.259242
4.6988201 1.02388 0.69946599
4.6988201 1.70226 2.4930799
4.6988201 1.70742 2.6745701
4.6988201 1.00412 1.15258
4.6988201 1.21166 0.17659099
4.6988201 1.63651 1.49149
4.6988201 1.49189 0.41183501
4.6988201 1.62058 0.170724
4.6988201 1.52341 0.97345501
4.6988201 1.7898 0.130989
4.6988201 1.78143 3.0004399
4.6988201 0.87560099 1.11746
4.6988201 1.1782399 0.42439401
4.6988201 1.4238501 1.15081
4.6988201 1.50049 2.77509
4.6988201 1.77069 1.68317
4.6988201 1.06003 2.48738
4.6988201 0.95176703 0.306995
4.6988201 0.89695501 2.2897301
4.6988201 1.16592 0.115097
4.6988201 1.6348 2.43138
4.6988201 0.95551902 1.31179
4.6988201 1.64434 2.6645
4.6988201 1.0731 1.23474
4.6988201 0.93911803 0.93169898
4.6988201 0.89959002 1.39103
4.6988201 1.14938 0.80803001
4.6988201 1.4636 0.98048103
4.6988201 1.82345 0.23640101
4.6988201 1.79884 1.74872
4.6988201 0.96960002 1.6737601
4.6988201 1.5026 0.43100601
4.6988201 1.45581 2.3617499
4.6988201 0.98277903 1.55591
4.6988201 1.86781 0.40817899
4.6988201 1.70807 1.3725899
4.6988201 1.14274 0.18728399
4.6988201 1.85463 0.34303099
4.6988201 0.97761101 0.82346702
4.6988201 0.939152 1.33031
4.6988201 1.4612 0.27441701
4.6988201 1.50582 1.29606
4.6988201 1.21708 1.5847
4.6988201 0.99799103 3.0142
4.6988201 1.49375 1.00449
4.6988201 1.17756 0.377772
4.6988201 0.90347898 1.85183
4.6988201 1.0056 0.306005
4.6988201 1.17589 1.51946
4.6988201 0.880364 2.95802
4.6988201 1.19584 1.7185
4.6988201 1.73172 1.51947
4.6988201 0.99229199 1.82926
4.6988201 1.8641599 0.60933298
4.6988201 1.5002199 1.21815
4.6988201 1.32459 0.96756101
4.6988201 0.98705101 0.93179899
4.6988201 1.00556 0.366238
4.6988201 1.12941 0.75971198
4.6988201 1.0006 1.4587801
4.6988201 0.98470598 1.12509
4.6988201 1.41136 2.45433
4.6988201 1.71744 1.71644
4.6988201 1.3394099 1.7445
4.6988201 1.77969 1.61944
4.6988201 0.90617502 2.8272099
4.6988201 0.92637497 2.9598
4.6988201 1.50546 0.118103
4.6988201 1.31794 2.88205
4.6988201 1.31591 1.54434
4.6988201 1.53649 0.107598
4.6988201 0.94147301 0.29694101
4.6988201 1.09943 1.65654
4.6988201 0.88456303 2.24245
4.6988201 1.06867 1.5256701
4.6988201 1.12602 0.68234497
4.6988201 1.31247 1.17425
4.6988201 1.67902 1.4019901
4.6988201 1.63257 0.211573
4.6988201 1.61797 1.38036
4.6988201 1.83718 1.62365
4.6988201 1.16537 3.0334499
4.6988201 1.5412101 0.205846
4.6988201 0.97235399 0.37832201
4.6988201 1.71454 0.34498399
4.6988201 1.10176 2.9191699
4.6988201 0.91432703 2.2149999
4.6988201 1.54335 1.6084501
4.6988201 1.11487 0.241193
4.6988201 1.4734499 1.25023
4.6988201 1.52949 0.342345
4.6988201 1.25536 0.60987902
4.6988201 1.24809 1.32726
4.6988201 1.38772 0.55827498
4.6988201 1.18776 0.82240099
4.6988201 0.871961 2.1949501
4.6988201 1.27239 2.0504501
4.6988201 1.2678 0.30721799
4.6988201 1.36084 1.0877301
4.6988201 0.98701602 1.81915
4.6988201 1.487 0.221865
4.6988201 1.34373 0.61485702
4.6988201 1.49897 0.081467099
4.6988201 1.70593 1.4259599
4.6988201 1.09005 2.4632399
4.6988201 1.84158 2.79846
4.6988201 0.87543201 1.43174
4.6988201 0.95973599 1.38036
4.6988201 1.12938 1.13287
4.6988201 1.3873 1.21885
4.6988201 1.8261499 2.9189
4.6988201 1.6465501 0.36616999
4.6988201 1.09005 2.4632399
4.6988201 1.41608 0.952788
4.6988201 1.03303 0.68945497
4.6988201 1.516 1.17917
4.6988201 1.02808 0.86967498
4.6988201 1.09925 1.50756
4.6988201 1.06282 0.50183499
4.6988201 1.1756099 1.6381299
4.6988201 1.41459 1.09395
4.6988201 1.68107 2.4486699
4.6988201 1.24419 0.90680099
4.6988201 1.05786 1.53203
4.6988201 1.2016 1.06661
4.6988201 1.18691 0.48760599
4.6988201 0.88556701 1.78564
4.6988201 0.93924701 1.37696
4.6988201 1.5556 0.320288
4.6988201 1.6811 1.49182
4.6988201 1.49498 0.37189099
4.6988201 1.48541 0.79942101
4.6988201 1.49897 0.081467099
4.6988201 1.34018 0.29310301
4.6988201 1.11713 0.88144499
4.6988201 1.25832 1.4054101
4.6988201 1.48545 0.065899901
4.6988201 1.3857501 0.59300601
4.6988201 1.64748 1.4841501
4.6988201 1.36998 1.43091
4.6988201 1.31787 1.687
4.6988201 1.82148 0.331386
4.6988201 1.4450901 0.217015
4.6988201 1.32622 1.42414
4.6988201 1.11484 0.38107401
4.6988201 1.35531 1.15589
4.6988201 0.90920502 1.15399
4.6988201 1.58961 0.14019901
4.6988201 1.2351201 1.54931
4.6988201 1.80983 0.34739301
4.6988201 1.0675499 2.4734099
4.6988201 1.19638 1.38051
4.6988201 1.1303 2.82528
4.6988201 0.928931 2.2862401
4.6988201 1.32129 0.363765
4.6988201 1.39301 1.83224
4.6988201 1.48558 0.98580801
4.6988201 1.51834 1.511
4.6988201 1.801 1.6872
4.6988201 1.19076 1.28169
4.6988201 0.87510997 1.29155
4.6988201 1.34586 1.1516401
4.6988201 0.94515401 0.44405499
4.6988201 1.63434 2.5713999
4.6988201 1.74068 0.34181201
4.6988201 0.86936402 0.99175698
4.6988201 1.4637001 2.39627
4.6988201 1.72268 2.74087
4.6988201 1.577 1.25283
4.6988201 1.64297 1.44122
4.6988201 1.7388 2.7646699
4.6988201 1.83362 2.70661
4.6988201 1.24663 3.01351
4.6988201 1.14765 1.7965
4.6988201 1.5577101 0.162304
4.6988201 1.58012 1.4396501
4.6988201 1.32102 1.83223
4.6988201 1.24936 0.192516
4.6988201 1.10728 0.179179
4.6988201 1.8450201 1.76922
4.6988201 1.12079 1.48913
4.6988201 1.81348 3.0102799
4.6988201 1.43097 1.52649
4.6988201 1.5248801 0.158577
4.6988201 1.38752 0.69067001
4.6988201 1.10388 1.7828
4.6988201 1.50973 0.19211601
4.6988201 1.28395 2.44331
4.6988201 0.93030697 1.52246
4.6988201 1.64203 2.8115101
4.6988201 1.79198 1.3234299
4.6988201 1.53864 2.4015701
4.6988201 1.43476 1.42362
4.6988201 1.08927 0.86999601
4.6988201 1.4416 0.33100301
4.6988201 1.60658 2.7835701
4.6988201 1.55206 1.0706
4.6988201 1.05058 0.57338399
4.6988201 1.48589 0.087973401
4.6988201 1.06366 2.4447
4.6988201 1.05964 1.1462899
4.6988201 1.30276 0.61541998
4.6988201 1.55652 0.27651301
4.6988201 0.92774898 1.66541
4.6988201 0.87075198 0.809838
4.6988201 1.4274499 1.06084
4.6988201 1.17988 1.12491
4.6988201 1.52298 1.09112
4.6988201 1.8641599 0.60933298
4.6988201 1.2822 0.34363699
4.6988201 0.93955898 2.8826301
4.6988201 1.1363699 0.85268903
4.6988201 1.60827 1.70213
4.6988201 1.34785 0.86235797
4.6988201 1.23022 0.36300701
4.6988201 1.01793 0.61188602
4.6988201 1.0937901 0.50555098
4.6988201 1.08753 0.52823901
4.6988201 1.5315599 2.6861
4.6988201 1.21534 2.9472499
4.6988201 1.13915 2.45436
4.6988201 1.02623 1.80302
4.6988201 0.92518699 3.0269699
4.6988201 1.04448 0.26673999
4.6988201 1.47369 1.77327
4.6988201 1.29703 0.820503
4.6988201 1.21942 2.9772301
4.6988201 1.14723 0.62939399
4.6988201 1.49227 1.22227
4.6988201 1.80714 0.260483
4.6988201 1.44907 1.61932
4.6988201 1.26425 0.99809301
4.6988201 1.41422 0.189399
4.6988201 1.79219 2.52792
4.6988201 1.80018 2.82723
4.6988201 0.97551 0.77802402
4.6988201 1.1182899 1.81643
4.6988201 1.0684 3.0261199
4.6988201 1.23405 0.68263
4.6988201 1.2374001 0.84647602
4.6988201 1.06016 1.66338
4.6988201 1.2652299 0.60699701
4.6988201 1.45444 2.47809
4.6988201 1.08723 2.441
4.6988201 1.04511 1.20206
4.6988201 0.92045897 1.64586
4.6988201 0.92522699 1.68809
4.6988201 1.44946 0.87272602
4.6988201 1.09045 1.2934901
4.6988201 1.2939 1.3639899
4.6988201 1.1859699 2.8723199
4.6988201 1.1418999 1.68503
4.6988201 1.28646 0.28334999
4.6988201 1.02099 0.803666
4.6988201 0.88990599 2.2310901
4.6988201 1.38082 2.2334001
4.6988201 1.11673 2.9381199
4.6988201 1.25306 0.67784601
4.6988201 1.1303 2.82528
4.6988201 1.4276299 1.1627001
4.6988201 1.1238101 1.81784
4.6988201 1.73356 1.58121
4.6988201 1.44349 1.46437
4.6988201 1.3966399 1.56201
4.6988201 1.8492 2.4474599
4.6988201 1.24598 2.96297
4.6988201 1.00493 0.63352698
4.6988201 1.0173301 1.06091
4.6988201 1.2337101 1.02113
4.6988201 1.21337 1.30528
4.6988201 0.892178 1.38621
4.6988201 1.3944401 1.43848
4.6988201 1.24505 1.65214
4.6988201 1.2720701 1.59229
4.6988201 1.47296 0.93531603
4.6988201 1.30406 0.139908
4.6988201 1.01955 2.89832
4.6988201 1.21999 3.00209
4.6988201 1.37701 0.42776501
4.6988201 1.3520401 1.78496
4.6988201 1.8525701 0.275839
4.6988201 1.24569 0.53662801
4.6988201 1.44409 1.63297
4.6988201 1.34421 1.14091
4.6988201 1.74164 2.6874001
4.6988201 1.28097 1.90653
4.6988201 1.13225 0.29903299
4.6988201 1.8547699 3.0388701
4.6988201 0.98277903 1.55591
4.6988201 1.39641 2.3126299
4.6988201 1.12988 2.96101
4.6988201 1.05944 0.82126498
4.6988201 1.00412 1.15258
4.6988201 0.88103598 0.88846397
4.6988201 1.2161 1.01114
4.6988201 1.03887 0.354776
4.6988201 1.65798 1.70978
4.6988201 1.76439 1.47355
4.6988201 1.3814501 1.78518
4.6988201 1.46861 0.32610101
4.6988201 1.28124 1.17641
4.6988201 1.08678 0.37162399
4.6988201 1.57329 0.195228
4.6988201 1.48355 0.81446499
4.6988201 1.19766 1.2323101
4.6988201 0.94859499 0.63009298
4.6988201 1.47252 1.01441
4.6988201 1.7418801 3.0207801
4.6988201 1.68116 1.50288
4.6988201 1.26064 0.40118
4.6988201 1.39889 1.23049
4.6988201 1.32164 0.096446298
4.6988201 1.62212 1.3225501
4.6988201 1.22832 0.74629301
4.6988201 1.37488 0.29773301
4.6988201 1.62033 0.316908
4.6988201 0.93665099 1.49165
4.6988201 1.04254 3.0169301
4.6988201 1.1363699 0.85268903
4.6988201 1.73822 2.7665701
4.6988201 1.34987 1.3923
4.6988201 1.4926 2.47544
4.6988201 0.95356798 0.33554301
4.6988201 1.47758 0.34978101
4.6988201 1.0679899 0.51486403
4.6988201 1.56358 2.5492699
4.6988201 1.39731 0.49028701
4.6988201 1.22733 0.65255201
4.6988201 1.08688 1.23893
4.6988201 0.95242602 1.26634
4.6988201 1.54 0.080456801
4.6988201 1.13941 0.31180099
4.6988201 1.38463 1.4038301
4.6988201 1.40753 0.345642
4.6988201 1.86598 2.58373
4.6988201 1.5131201 1.52992
4.6988201 1.08562 2.52267
4.6988201 1.27897 1.28276
4.6988201 1.56107 1.73473
4.6988201 1.09321 1.3667001
4.6988201 0.94572699 1.18287
4.6988201 1.24419 2.94309
4.6988201 1.45995 1.26686
4.6988201 1.33334 0.83959502
4.6988201 1.30647 1.93984
4.6988201 1.23692 1.84259
4.6988201 1.4179 1.5574501
4.6988201 1.62537 2.57757
4.6988201 0.918787 1.32175
4.6988201 1.27707 1.97262
4.6988201 1.21917 1.67974
4.6988201 1.72437 1.66707
4.6988201 1.04119 0.958058
4.6988201 1.3074501 0.111532
4.6988201 1.23347 0.57608002
4.6988201 1.71165 2.9760001
4.6988201 1.3122801 0.28250301
4.6988201 1.60461 1.57408
4.6988201 1.84433 0.436241
4.6988201 1.50208 2.29738
4.6988201 1.01731 1.04655
4.6988201 0.87865698 1.35186
4.6988201 1.77019 2.5380099
4.6988201 1.01863 1.70143
4.6988201 1.66107 1.29008
4.6988201 0.95603299 0.33071101
4.6988201 1.49564 1.5972199
4.6988201 1.52116 2.2941301
4.6988201 0.95709199 3.01056
4.6988201 1.58723 2.5350499
4.6988201 0.94894701 1.4111201
4.6988201 1.08351 2.8069201
4.6988201 1.27394 0.84598303
4.6988201 1.64025 2.48543
4.6988201 1.12273 1.6894799
4.6988201 1.2678 0.30721799
4.6988201 1.2187901 0.45781499
4.6988201 1.18568 0.62392199
4.6988201 1.44491 0.72124302
4.6988201 1.2205499 2.4640901
4.6988201 1.04706 1.0762
4.6988201 0.904899 1.42127
4.6988201 1.64516 0.222341
4.6988201 1.32253 1.68357
4.6988201 1.21937 1.21057
4.6988201 0.99687701 0.30965
4.6988201 0.90246499 0.61822301
4.6988201 1.14635 3.0043001
4.6988201 1.4062901 0.655972
4.6988201 0.93909198 1.07774
4.6988201 1.10388 1.7828
4.6988201 1.29555 0.218646
4.6988201 1.76758 0.35165599
4.6988201 1.31467 1.82245
4.6988201 0.903054 1.22176
4.6988201 1.74191 0.26043499
4.6988201 1.3846999 1.46232
4.6988201 0.89695501 2.2897301
4.6988201 1.74219 1.49163
4.6988201 1.27127 0.78025502
4.6988201 1.19787 1.65692
4.6988201 1.54582 2.51583
4.6988201 0.98435998 0.42905301
4.6988201 1.39545 0.500682
4.6988201 1.00582 1.55446
4.6988201 1.07063 1.65949
4.6988201 0.98642898 0.31814599
4.6988201 1.7553 1.62235
4.6988201 1.04997 1.08921
4.6988201 1.00263 1.67338
4.6988201 1.23405 0.68263
4.6988201 0.92891598 2.9651699
4.6988201 1.44631 2.34676
4.6988201 1.58599 0.10512
4.6988201 1.55141 0.146421
4.6988201 1.38772 0.55827498
4.6988201 1.49821 0.144582
4.6988201 1.40449 2.2225101
4.6988201 1.30566 0.51210201
4.6988201 1.47051 0.87995797
4.6988201 1.5455101 0.125782
4.6988201 0.88390303 1.60233
4.6988201 1.0209301 0.30344799
4.6988201 0.88791102 2.32214
4.6988201 1.56265 1.07837
4.6988201 1.75813 1.6495301
4.6988201 0.96245301 0.354489
4.6988201 0.90228403 0.30926201
4.6988201 1.09963 0.42563099
4.6988201 1.16116 0.63667297
4.6988201 1.50475 0.98737597
4.6988201 1.0644 1.0525399
4.6988201 1.52715 0.29873401
4.6988201 1.2891001 1.705
4.6988201 0.886724 1.94101
4.6988201 1.2109801 1.81546
4.6988201 1.08059 1.20603
4.6988201 1.41363 1.76455
4.6988201 1.6483099 0.242204
4.6988201 1.09557 1.19048
4.6988201 1.45368 1.72183
4.6988201 0.91112298 2.9389501
4.6988201 1.20487 3.03493
4.6988201 0.94509399 0.27512899
4.6988201 0.97530699 2.3740799
4.6988201 1.34667 2.3399
4.6988201 1.54445 1.67902
4.6988201 1.39949 0.335208
4.6988201 1.15389 2.97312
4.6988201 1.82423 1.44224
4.6988201 1.4234101 0.50599301
4.6988201 1.56902 2.36151
4.6988201 1.21661 0.13915101
4.6988201 0.87042499 0.69299299
4.6988201 1.11734 1.00972
4.6988201 1.36404 2.31793
4.6988201 1.34258 0.64025098
4.6988201 1.24972 0.473223
4.6988201 1.26425 0.99809301
4.6988201 1.41942 0.38978899
4.6988201 1.16245 1.2987601
4.6988201 1.0877 2.96545
4.6988201 1.20565 1.26998
4.6988201 1.3052 0.297564
4.6988201 1.6559 1.31778
4.6988201 1.77677 1.33656
4.6988201 1.2187901 0.45781499
4.6988201 0.902435 1.7808
4.6988201 1.41422 0.189399
4.6988201 1.36549 0.54672998
4.6988201 1.47893 0.116079
4.6988201 1.69314 1.6819
4.6988201 0.92248398 0.35196301
4.6988201 1.43476 1.42362
4.6988201 1.03382 0.41743499
4.6988201 1.0005701 1.09846
4.6988201 1.29232 0.97661
4.6988201 1.53654 1.30607
4.6988201 0.948062 0.27858201
4.6988201 1.4947 1.22365
4.6988201 0.88212502 0.43982801
4.6988201 1.83461 0.164906
4.6988201 1.05832 1.84097
4.6988201 1.485 1.58162
4.6988201 1.28153 0.62365597
4.6988201 1.03984 3.02563
4.6988201 0.88349497 1.27382
4.6988201 1.84965 0.50137001
4.6988201 1.23404 1.58505
4.6988201 0.87567902 1.55051
4.6988201 1.7838 2.6094301
4.6988201 1.38385 2.2685499
4.6988201 1.63959 2.6245
4.6988201 1.29531 1.14501
4.6988201 0.90347898 1.85183
4.6988201 1.52402 1.69212
4.6988201 1.07063 1.65949
4.6988201 0.91035801 0.63911402
4.6988201 1.65224 0.209236
4.6988201 1.55503 2.5551
4.6988201 1.42249 1.24947
4.6988201 1.18133 0.89666599
4.6988201 0.88041502 2.3538799
4.6988201 1.65379 2.71981
4.6988201 1.25129 0.59638298
4.6988201 1.38956 1.2896399
4.6988201 1.56655 0.98814797
4.6988201 1.7936 1.48909
4.6988201 1.78255 1.37422
4.6988201 1.31164 1.03901
4.6988201 1.46655 0.42766801
4.6988201 1.48782 0.46082601
4.6988201 1.0328701 1.58347
4.6988201 1.4922 1.6469001
4.6988201 1.6855201 1.50834
4.6988201 1.46627 0.77680397
4.6988201 1.5331399 0.38501
4.6988201 1.8270299 2.5617499
4.6988201 1.18826 1.85753
4.6988201 1.1353199 1.3904999
4.6988201 1.1674 1.06975
4.6988201 1.25962 0.460875
4.6988201 1.02031 1.11632
4.6988201 1.6224101 2.47119
4.6988201 1.76828 1.5196199
4.6988201 1.77975 1.6635799
4.6988201 0.89727801 2.2930601
4.6988201 1.27868 0.65268898
4.6988201 1.03521 1.1423399
4.6988201 1.09236 1.01126
4.6988201 0.91415101 1.13745
4.6988201 1.74641 0.17461599
4.6988201 1.43975 1.75639
4.6988201 1.34481 0.12756801
4.6988201 1.5556 0.320288
4.6988201 0.88559902 0.33557501
4.6988201 1.30792 2.91924
4.6988201 1.82889 1.55138
4.6988201 1.85382 2.80902
4.6988201 1.34326 0.401519
4.6988201 0.94162202 2.24032
4.6988201 0.90526497 1.32019
4.6988201 1.18118 1.06116
4.6988201 1.00553 1.16258
4.6988201 1.2283 0.93701798
4.6988201 1.2067 0.92075598
4.6988201 1.7151099 3.0336599
4.6988201 0.99922299 0.39789799
4.6988201 1.51433 0.41685399
4.6988201 0.91236103 1.42255
4.6988201 0.993249 2.43888
4.6988201 0.95075202 0.72154999
4.6988201 1.72666 1.3651201
4.6988201 1.67577 0.169818
4.6988201 1.42309 1.4518
4.6988201 0.88836402 1.51077
4.6988201 1.3015701 1.1143399
4.6988201 1.5488 1.63345
4.6988201 1.06028 1.3195
4.6988201 1.35739 2.3912899
4.6988201 1.42458 1.40499
4.6988201 1.45582 1.6622699
4.6988201 1.3043801 1.19563
4.6988201 1.4928401 1.02722
4.6988201 1.61588 2.54282
4.6988201 1.19301 0.54008597
4.6988201 1.1657701 2.8448501
4.6988201 1.83764 0.37760699
4.6988201 1.61743 2.40944
4.6988201 1.18138 2.8671601
4.6988201 1.85794 0.36229399
4.6988201 1.02048 0.65687001
4.6988201 1.39745 2.4037399
4.6988201 1.15405 0.415849
4.6988201 1.73822 2.7665701
4.6988201 0.97901601 1.0516
4.6988201 1.60159 0.202187
4.6988201 1.05211 0.96528798
4.6988201 1.28069 2.96051
4.6988201 1.1961499 0.195949
4.6988201 1.24687 0.150482
4.6988201 0.94471902 0.48444599
4.6988201 1.52573 1.25553
4.6988201 1.4093699 1.8145
4.6988201 1.2341501 1.62727
4.6988201 0.91236103 1.42255
4.6988201 1.36278 1.25401
4.6988201 0.88031 2.33478
4.6988201 1.37885 0.223859
4.6988201 1.2303801 1.56323
4.6988201 0.917436 0.55163902
4.6988201 1.0832 2.7502899
4.6988201 1.00582 1.55446
4.6988201 0.87439001 2.9906001
4.6988201 1.28592 0.50364101
4.6988201 1.03676 2.92799
4.6988201 1.83515 0.225365
4.6988201 0.95314401 1.08189
4.6988201 1.3721 1.3952399
4.6988201 0.88124698 2.4070899
4.6988201 1.5356801 2.5776401
4.6988201 1.69043 1.70849
4.6988201 1.20284 2.92958
4.6988201 1.51964 1.6144201
4.6988201 1.3944 0.124923
4.6988201 1.53132 1.17224
4.6988201 1.5485801 2.41344
4.6988201 1.81019 3.0346501
4.6988201 1.5429699 2.4672401
4.6988201 0.87584102 0.94504201
4.6988201 1.40576 0.73971999
4.6988201 1.23699 0.96247602
4.6988201 1.53984 0.20395599
4.6988201 1.73639 1.53958
4.6988201 1.0253 0.39617601
4.6988201 0.930103 0.72269201
4.6988201 0.954454 0.74504101
4.6988201 1.73417 1.35499
4.6988201 1.84014 1.5737799
4.6988201 1.28671 1.75861
4.6988201 1.47869 1.2048399
4.6988201 1.61377 2.6642699
4.6988201 1.40449 2.2225101
4.6988201 1.2401 0.89019799
4.6988201 1.06848 1.6030101
4.6988201 1.82691 1.4323
4.6988201 1.81677 1.34251
4.6988201 1.31102 0.13185801
4.6988201 1.35186 2.97313
4.6988201 1.4469 0.790806
4.6988201 1.68419 2.4713199
4.6988201 1.27759 3.0155001
4.6988201 1.13147 1.66014
4.6988201 1.31855 1.50345
4.6988201 1.09575 1.57809
4.6988201 1.3733799 2.39884
4.6988201 1.57656 1.68747
4.6988201 1.6468 0.35227701
4.6988201 1.16969 0.054650899
4.6988201 1.41278 1.73299
4.6988201 1.68117 2.5392101
4.6988201 1.71131 2.88518
4.6988201 1.7418801 3.0207801
4.6988201 1.09743 2.7483201
4.6988201 1.4795099 1.61531
4.6988201 1.6401401 1.48202
4.6988201 1.5872999 0.36209401
4.6988201 1.39414 0.386962
4.6988201 0.92519403 0.89889598
4.6988201 1.26192 0.390288
4.6988201 1.24809 0.57979101
4.6988201 1.07277 0.31688699
4.6988201 1.86428 2.6889701
4.6988201 1.09241 0.99384701
4.6988201 1.35511 1.65288
4.6988201 0.993348 3.0012901
4.6988201 1.08162 1.50302
4.6988201 0.89559603 2.8285799
4.6988201 1.0056 0.306005
4.6988201 1.32807 0.211128
4.6988201 1.13051 0.196894
4.6988201 1.50556 2.33758
4.6988201 1.4498399 0.348961
4.6988201 1.39578 2.3181601
4.6988201 1.46856 0.841434
4.6988201 1.1357599 1.47212
4.6988201 1.26934 1.4126
4.6988201 1.46013 2.3506899
4.6988201 1.45849 1.47967
4.6988201 1.85558 2.7262499
4.6988201 1.17475 1.48799
4.6988201 1.44409 1.63297
4.6988201 1.63553 1.62432
4.6988201 1.82889 1.55138
4.6988201 1.52572 2.6930599
4.6988201 1.61956 0.35327399
4.6988201 1.5308599 1.04348
4.6988201 1.3094 1.78693
4.6988201 1.46269 1.2036099
4.6988201 1.34579 2.40992
4.6988201 1.74843 0.38371301
4.6988201 0.88014501 0.94372803
4.6988201 1.2534 0.56182802
4.6988201 1.53346 1.3636
4.6988201 1.24972 0.473223
4.6988201 1.4759901 1.37506
4.6988201 1.3319 0.230294
4.6988201 1.16374 1.71893
4.6988201 1.05682 0.87292099
4.6988201 1.13941 0.31180099
4.6988201 1.20268 0.60679299
4.6988201 1.77183 1.65034
4.6988201 1.65792 2.4537699
4.6988201 0.998106 2.8768301
4.6988201 1.03131 1.10525
4.6988201 1.85867 2.9440899
4.6988201 1.45202 0.396642
4.6988201 1.29479 0.70745099
4.6988201 1.48691 0.85511601
4.6988201 1.6023099 1.70653
4.6988201 1.08302 2.87918
4.6988201 1.7864 2.4737899
4.6988201 1.47312 0.29476401
4.6988201 1.80276 1.3832901
4.6988201 1.59583 2.5486901
4.6988201 1.07172 0.63288999
4.6988201 1.0668401 1.8380899
4.6988201 1.54091 2.5931799
4.6988201 1.85605 1.49422
4.6988201 1.8173 2.91662
4.6988201 1.0043401 1.09561
4.6988201 1.5664001 2.4376199
4.6988201 1.45017 2.4832201
4.6988201 0.91471499 1.1848
4.6988201 1.18167 1.38905
4.6988201 0.89886701 3.00702
4.6988201 1.3113101 1.09661
4.6988201 0.94055498 1.77478
4.6988201 1.09435 1.37219
4.6988201 1.33775 0.91892499
4.6988201 1.00561 2.42658
4.6988201 0.98816502 0.62622702
4.6988201 1.57091 2.50278
4.6988201 1.11277 1.6388299
4.6988201 1.13622 1.25468
4.6988201 1.05334 0.26474801
4.6988201 1.71744 1.71644
4.6988201 1.78285 2.6767499
4.6988201 0.96398801 1.8002599
4.6988201 1.74876 1.67309
4.6988201 1.49436 0.993168
4.6988201 1.18374 1.3405401
4.6988201 1.2895 0.48091999
4.6988201 1.13281 0.24494401
4.6988201 1.44611 0.286219
4.6988201 1.76522 0.326179
4.6988201 1.50348 2.3582599
4.6988201 1.6956199 2.7081499
4.6988201 1.58534 1.4884599
4.6988201 1.30476 0.54133999
4.6988201 1.26844 1.41658
4.6988201 1.69314 1.6819
4.6988201 1.62147 2.6219101
4.6988201 1.5220799 0.97660297
4.6988201 0.99895501 0.29960001
4.6988201 0.93500298 1.50783
4.6988201 1.43936 1.70665
4.6988201 1.4469 0.790806
4.6988201 1.19182 1.27407
4.6988201 1.1293499 1.5816
4.6988201 1.19142 0.52588099
4.6988201 1.6832401 2.6115899
4.6988201 1.3360699 0.126187
4.6988201 1.81915 0.055597398
4.6988201 1.44093 0.44044101
4.6988201 1.16663 0.64928502
4.6988201 1.2050101 1.3756
4.6988201 0.89312202 1.72229
4.6988201 1.3954901 1.35269
4.6988201 0.95699501 2.3710699
4.6988201 1.0157599 0.21463799
4.6988201 1.42432 1.78895
4.6988201 1.7337 2.6786599
4.6988201 1.83232 2.9709401
4.6988201 0.87021601 0.617899
4.6988201 1.40597 1.7591
4.6988201 1.51292 1.35492
4.6988201 1.41767 1.29952
4.6988201 1.55048 1.3829499
4.6988201 1.36033 1.47922
4.6988201 0.96648401 0.66190398
4.6988201 1.7860399 1.7187999
4.6988201 1.83746 2.6675301
4.6988201 1.10388 1.7828
4.6988201 1.26748 0.27151501
4.6988201 1.45362 1.13586
4.6988201 1.70777 1.5978
4.6988201 0.91369599 0.43329
4.6988201 1.41073 0.95528001
4.6988201 1.34593 0.98387599
4.6988201 1.83515 0.225365
4.6988201 1.80732 0.162175
4.6988201 1.16686 0.203174
4.6988201 1.51736 1.5806201
4.6988201 0.96648401 0.66190398
4.6988201 1.3085901 0.71746099
4.6988201 1.81308 2.6663101
4.6988201 1.0878299 0.28359699
4.6988201 1.61032 2.71399
4.6988201 1.85189 2.78069
4.6988201 1.76201 0.29267699
4.6988201 0.90526497 1.32019
4.6988201 2.3183801 0.37350401
4.6988201 2.0190401 1.95654
4.6988201 2.0622101 0.40579301
4.6988201 2.5415299 2.3888099
4.6988201 2.48032 0.683011
4.6988201 2.72106 1.65959
4.6988201 2.35831 1.8584599
4.6988201 2.0408101 2.9528899
4.6988201 2.26389 0.594064
4.6988201 2.81303 1.95293
4.6988201 1.9205 0.32675499
4.6988201 1.89754 1.89533
4.6988201 1.88807 2.7991199
4.6988201 2.3508101 2.90938
4.6988201 2.5664201 1.8293101
4.6988201 2.66868 0.72736198
4.6988201 2.4898 1.93739
4.6988201 2.0206299 0.50182199
4.6988201 2.26509 1.19856
4.6988201 2.02123 2.23755
4.6988201 2.6343801 2.65694
4.6988201 1.95556 0.0788517
4.6988201 2.3807499 1.00685
4.6988201 1.97445 0.55856699
4.6988201 2.70818 2.2402
4.6988201 1.97387 2.3229101
4.6988201 2.2518401 1.91544
4.6988201 1.90114 2.9275999
4.6988201 2.4630001 1.5114
4.6988201 1.95278 1.69874
4.6988201 2.16484 0.187813
4.6988201 2.80107 1.56358
4.6988201 2.5232899 0.871503
4.6988201 2.2590899 0.36872101
4.6988201 2.1949799 1.35525
4.6988201 2.53458 2.11145
4.6988201 2.36816 0.415418
4.6988201 2.0165901 2.62356
4.6988201 2.0576999 0.38114899
4.6988201 1.96447 0.70214599
4.6988201 1.99008 2.6192801
4.6988201 2.3861499 0.69424301
4.6988201 1.90615 2.4795401
4.6988201 2.85783 2.17136
4.6988201 2.52226 1.6408401
4.6988201 2.1424201 0.24670801
4.6988201 1.91777 2.6408401
4.6988201 2.07147 0.34511101
4.6988201 2.4802999 2.4842801
4.6988201 2.11096 0.566706
4.6988201 2.01648 1.5540299
4.6988201 2.06615 1.64653
4.6988201 2.77282 2.47054
4.6988201 2.52368 2.9909699
4.6988201 2.69962 2.48189
4.6988201 2.58688 0.80485398
4.6988201 2.57025 2.61413
4.6988201 1.90882 1.43845
4.6988201 2.5216601 2.8247001
4.6988201 2.71189 2.3369999
4.6988201 2.3808999 2.77544
4.6988201 1.9490499 0.27306601
4.6988201 2.0912001 0.49840799
4.6988201 2.4605601 1.816
4.6988201 2.57078 1.53864
4.6988201 2.5703299 2.2465601
4.6988201 2.10566 2.9651699
4.6988201 2.3512101 1.09113
4.6988201 2.53176 2.2632599
4.6988201 2.0920899 1.67835
4.6988201 2.23103 0.491319
4.6988201 2.48032 0.683011
4.6988201 2.4625399 2.4798
4.6988201 2.5478201 1.71649
4.6988201 2.7486899 1.78707
4.6988201 2.49454 2.0034699
4.6988201 1.90486 2.9517701
4.6988201 2.56055 1.90538
4.6988201 1.99866 1.95902
4.6988201 2.44348 2.3779099
4.6988201 2.5973899 1.69442
4.6988201 2.43906 0.86548197
4.6988201 2.6752601 2.4860899
4.6988201 2.69204 2.2749901
4.6988201 2.26824 1.7931401
4.6988201 2.84584 0.62246603
4.6988201 2.4321401 0.57440102
4.6988201 2.0283201 1.9362
4.6988201 2.1117499 2.8397501
4.6988201 1.90678 0.36652201
4.6988201 2.00207 2.0344801
4.6988201 1.99388 1.53426
4.6988201 2.3343799 0.080343999
4.6988201 2.4049001 0.68981701
4.6988201 2.01407 2.12637
4.6988201 2.12358 2.8109801
4.6988201 2.4537799 0.90756398
4.6988201 2.3343799 0.080343999
4.6988201 2.4625399 2.4798
4.6988201 2.24348 0.32108399
4.6988201 1.93478 0.174346
4.6988201 2.4303601 1.8353
4.6988201 2.1410601 1.94147
4.6988201 1.89938 0.32629901
4.6988201 2.17485 0.27183101
4.6988201 2.0964 1.86604
4.6988201 2.4158101 2.74928
4.6988201 2.0652599 1.68672
4.6988201 2.45171 0.80370998
4.6988201 2.85094 2.1338401
4.6988201 2.6552701 1.66838
4.6988201 2.23877 1.27086
4.6988201 1.9273601 1.691
4.6988201 1.8896 0.33416501
4.6988201 2.5153 1.73918
4.6988201 2.72172 2.5293601
4.6988201 1.89022 0.073128201
4.6988201 2.35165 0.71847302
4.6988201 2.63204 0.81771302
4.6988201 2.35465 2.8433299
4.6988201 1.92466 2.5675299
4.6988201 2.6628301 1.90072
4.6988201 2.0192699 1.93215
4.6988201 2.6567299 1.59461
4.6988201 2.6384599 2.4426
4.6988201 2.40927 0.98342401
4.6988201 1.90565 1.64273
4.6988201 1.94291 2.80794
4.6988201 2.6118 2.48158
4.6988201 1.89457 0.61913699
4.6988201 1.96102 1.76937
4.6988201 2.68748 0.80417502
4.6988201 2.0927601 0.68960398
4.6988201 2.7151899 2.1038001
4.6988201 1.9580801 2.6953599
4.6988201 2.3840401 0.53167099
4.6988201 2.56832 1.71725
4.6988201 2.82024 1.91353
4.6988201 2.21187 2.90064
4.6988201 2.4007001 1.90966
4.6988201 2.3169999 3.0227599
4.6988201 2.08761 0.392023
4.6988201 2.4418299 0.495929
4.6988201 2.21419 2.86625
4.6988201 2.2718301 1.82945
4.6988201 2.4046299 0.230671
4.6988201 2.12358 2.8109801
4.6988201 2.2025001 0.68701702
4.6988201 2.0645001 1.77765
4.6988201 2.0127101 0.55623102
4.6988201 1.9304399 1.61901
4.6988201 2.3762 0.73711503
4.6988201 2.8127799 2.2869999
4.6988201 2.2098999 0.30177799
4.6988201 2.5334001 1.80326
4.6988201 2.6501901 1.90514
4.6988201 2.67435 2.0114801
4.6988201 2.6175699 2.5506599
4.6988201 2.65166 1.89871
4.6988201 1.88551 1.72874
4.6988201 2.66241 2.6547699
4.6988201 2.36219 0.31572601
4.6988201 2.6401501 1.62266
4.6988201 2.0709 2.9421101
4.6988201 2.7414501 1.7961299
4.6988201 2.4542301 0.733446
4.6988201 2.3582101 2.8085499
4.6988201 2.8216801 0.78574502
4.6988201 2.5777099 2.5704601
4.6988201 2.11186 2.77179
4.6988201 2.5896101 1.6408401
4.6988201 2.03426 0.56341499
4.6988201 1.87743 0.45089501
4.6988201 2.7497399 2.35167
4.6988201 1.90918 0.76681697
4.6988201 2.00405 1.80387
4.6988201 2.0464101 0.31550699
4.6988201 2.20034 0.394669
4.6988201 2.0637801 0.58846003
4.6988201 2.81441 1.5763299
4.6988201 2.4726601 1.7872
4.6988201 2.2611699 0.59925997
4.6988201 2.54512 0.85874099
4.6988201 2.35165 0.71847302
4.6988201 2.09958 0.51215601
4.6988201 2.2723601 0.20709699
4.6988201 2.3573401 1.9418
4.6988201 2.6362901 3.0025799
4.6988201 2.7623501 2.4252999
4.6988201 1.9401 3.00142
4.6988201 1.87767 2.9290099
4.6988201 2.8435099 2.30463
4.6988201 1.87173 0.38795301
4.6988201 1.98975 1.92839
4.6988201 2.4838099 2.08953
