# .PCD v0.7 - Point Cloud Data file format
VERSION 0.7
FIELDS x y z
SIZE 4 4 4
TYPE F F F
COUNT 1 1 1
WIDTH 1754
HEIGHT 1
VIEWPOINT 0 0 0 1 0 0 0
POINTS 1754
DATA ascii
4.2834902 1.4742399 3.0999999
4.2673802 1.44818 3.0999999
3.9665401 1.26158 3.0906301
4.0686498 1.25677 3.06218
4.1742702 1.45631 3.0999999
4.1890602 1.31654 3.0999999
4.0447502 1.42405 3.0999999
4.1292901 1.45812 3.06218
3.9665401 1.26811 3.0636101
4.16259 1.41061 3.0999999
4.2379799 1.20257 3.06218
4.2351499 1.2487299 3.06218
4.2322402 1.33417 3.0999999
3.9665401 1.5185601 3.08303
4.12918 1.8327301 3.06218
3.9892001 1.36017 3.0999999
4.03901 1.31353 3.06218
3.9684999 1.51328 3.0999999
4.1567602 1.25208 3.06218
4.0465102 1.42299 3.0999999
3.9665401 1.26811 3.0636101
3.9860799 1.36247 3.06218
4.1774902 1.81038 3.06218
4.0250301 1.52061 3.06218
4.0250301 1.52061 3.06218
4.2090702 1.40385 3.06218
4.26228 1.50415 3.0999999
4.1904402 1.46991 3.0999999
4.0928102 1.3789901 3.0999999
3.9719501 1.25149 3.0999999
4.0063 1.3767999 3.0999999
4.2140899 1.24052 3.0999999
4.1403899 1.37229 3.06218
4.0292401 1.3369499 3.0999999
3.9756801 1.47351 3.06218
4.25597 1.4697 3.0999999
4.2020702 1.2094899 3.06218
4.0127401 1.4801 3.06218
4.1680999 1.40142 3.0999999
4.2512202 1.4618599 3.06218
4.0549598 1.39827 3.06218
4.0190601 1.4850399 3.06218
4.2282901 1.40151 3.06218
4.2413301 1.28131 3.06218
4.0250702 1.4081 3.06218
4.0711398 1.42935 3.06218
4.2644901 1.33325 3.0999999
4.0576901 1.3865 3.06218
4.2606101 1.78945 3.06218
4.02248 1.28754 3.0999999
3.9684999 1.51328 3.0999999
4.12604 1.4344 3.0999999
4.14641 1.32112 3.06218
4.2730899 1.39416 3.0999999
3.9665401 1.47443 3.0985701
4.2002201 1.23401 3.0999999
4.2004299 1.22684 3.06218
4.0127401 1.4801 3.06218
3.9665401 1.50823 3.0716801
4.2147598 1.4362 3.0999999
4.06564 1.38043 3.06218
4.1208 1.41159 3.06218
4.1441302 1.52608 3.0999999
4.2434802 1.4552701 3.0999999
3.98965 1.32108 3.06218
4.2713299 1.1930799 3.06218
4.2343898 1.30019 3.0999999
4.08389 1.45789 3.06218
4.1259198 1.83137 3.06218
3.9665401 1.51982 3.0778699
4.1212001 1.32538 3.0999999
4.0367999 1.5105 3.06218
4.2367802 1.23296 3.06218
4.0022001 1.45566 3.06218
3.99406 1.4764 3.0999999
4.1879101 1.78107 3.0999999
4.1872501 1.4211299 3.0999999
3.9737 1.3881 3.06218
4.2147498 1.32311 3.0999999
4.2730598 1.40167 3.06218
4.08321 1.3197 3.0999999
4.13624 1.45943 3.06218
3.9665401 1.34368 3.0866301
3.9958799 1.45803 3.06218
4.26124 1.28904 3.0999999
3.9665401 1.3414299 3.07319
4.1545701 1.27526 3.06218
3.9665401 1.5185601 3.08303
4.0063 1.3767999 3.0999999
4.2687302 1.44057 3.06218
4.2017202 1.22098 3.06218
3.9684999 1.51328 3.0999999
4.23557 1.4962 3.06218
4.13624 1.45943 3.06218
4.0005798 1.47954 3.0999999
4.1403899 1.37229 3.06218
4.24898 1.20976 3.06218
4.1561999 1.33369 3.06218
3.9665401 1.26158 3.0906301
3.9665401 1.34368 3.0866301
4.1245799 1.3246 3.0999999
4.1776299 1.5106699 3.0999999
3.9665401 1.5065399 3.0987501
4.0135102 1.2903 3.06218
3.9691 1.31161 3.06218
4.2522302 1.49366 3.0999999
4.06809 1.86391 3.0999999
4.07829 1.48988 3.06218
4.0222201 1.4029 3.0999999
4.1079702 1.28466 3.0999999
4.1351299 1.47984 3.06218
4.0933499 1.29167 3.0999999
4.1890602 1.31654 3.0999999
4.2316198 1.15915 3.0999999
4.2431002 1.39201 3.06218
4.1835499 1.3171 3.0999999
4.19449 1.15636 3.0999999
4.16431 1.41386 3.0999999
4.2218299 1.79317 3.06218
4.13345 1.5024101 3.06218
4.0016799 1.8576699 3.06218
4.19873 1.3578399 3.06218
4.1658502 1.25696 3.06218
4.1545701 1.27526 3.06218
4.0980101 1.29021 3.06218
4.1838398 1.38533 3.06218
4.26652 1.2349 3.0999999
4.0375299 1.8620501 3.06218
4.2385602 1.17334 3.06218
4.0776901 1.29907 3.06218
3.9945199 1.38885 3.06218
3.97015 1.32775 3.06218
4.1244798 1.43209 3.06218
4.2603798 1.39265 3.0999999
4.2379799 1.20257 3.06218
4.1945701 1.38905 3.06218
4.0353899 1.26938 3.06218
4.2486701 1.17837 3.0999999
4.12918 1.8327301 3.06218
4.0023999 1.34957 3.0999999
4.1512599 1.79939 3.06218
4.21597 1.41195 3.0999999
4.0794201 1.37358 3.06218
4.0755901 1.50174 3.0999999
4.0127401 1.4801 3.06218
4.17522 1.23523 3.06218
4.0127401 1.4801 3.06218
4.1486001 1.21785 3.06218
3.9665401 1.51982 3.0778699
4.0340099 1.51671 3.06218
3.97859 1.24784 3.06218
4.1960702 1.23542 3.06218
4.0455198 1.33973 3.0999999
3.98089 1.33754 3.0999999
4.2690201 1.2094899 3.06218
4.0737 1.53095 3.06218
4.0910902 1.46034 3.0999999
4.0139298 1.3627501 3.06218
4.1571298 1.2257 3.0999999
4.1777701 1.36044 3.0999999
3.9809699 1.40566 3.0999999
4.1205702 1.22829 3.06218
4.2100101 1.28001 3.06218
4.1840801 1.36722 3.0999999
3.9723201 1.51679 3.0999999
4.22189 1.15669 3.06218
4.1975198 1.2909 3.06218
4.06529 1.28009 3.06218
4.0455198 1.33973 3.0999999
4.2227502 1.21176 3.06218
3.9665401 1.51982 3.0778699
4.2568202 1.46697 3.0999999
4.2744298 1.14748 3.0999999
4.1777701 1.36044 3.0999999
4.2297001 1.35615 3.0999999
4.0292401 1.3369499 3.0999999
4.0633998 1.48326 3.06218
3.9665401 1.46692 3.0636799
4.28545 1.3819799 3.0999999
4.0534 1.50343 3.0999999
3.9965501 1.49278 3.0999999
4.1359601 1.49461 3.0999999
4.1774902 1.81038 3.06218
4.1261702 1.4758 3.0999999
4.2488399 1.4361 3.0999999
4.25735 1.17772 3.0999999
3.9665401 1.39011 3.09182
4.2516298 1.43231 3.06218
3.98717 1.5199 3.0999999
4.14393 1.32322 3.0999999
4.16221 1.3290401 3.0999999
4.1725101 1.2523299 3.0999999
4.1359601 1.49461 3.0999999
4.0538998 1.36809 3.06218
3.9965799 1.50616 3.06218
4.0991502 1.25212 3.0999999
4.2644901 1.33325 3.0999999
4.2825799 1.41914 3.0999999
4.0949202 1.45277 3.06218
4.2834902 1.4742399 3.0999999
3.9665401 1.28003 3.07128
3.9665401 1.38434 3.07147
4.0281601 1.41664 3.06218
3.9874201 1.33745 3.06218
4.0933499 1.29167 3.0999999
3.99406 1.4764 3.0999999
4.19911 1.4173599 3.0999999
4.1265998 1.3141299 3.0999999
4.21207 1.3978601 3.06218
4.0132399 1.4881099 3.06218
4.2834902 1.4742399 3.0999999
3.9665401 1.26158 3.0906301
4.1079702 1.28466 3.0999999
4.1346402 1.4853899 3.06218
4.1153102 1.42951 3.0999999
4.01195 1.44216 3.06218
4.06141 1.49696 3.06218
4.0095901 1.358 3.0999999
4.1458502 1.24393 3.06218
4.2091699 1.48237 3.06218
4.03021 1.38766 3.0999999
4.2114501 1.43949 3.06218
4.2026401 1.41695 3.06218
4.19557 1.4094 3.0999999
4.2039599 1.15397 3.06218
4.2843199 1.36587 3.06218
3.9665401 1.36966 3.0853701
4.2536702 1.1560301 3.06218
4.0036602 1.26843 3.06218
4.2796001 1.15097 3.06218
3.9665401 1.26626 3.09166
4.2725301 1.41145 3.0999999
4.0865102 1.48685 3.06218
3.97679 1.34835 3.0999999
4.1266899 1.47115 3.06218
4.13622 1.50579 3.0999999
4.2521701 1.2421 3.06218
4.1031699 1.85438 3.06218
4.10811 1.46538 3.0999999
4.21207 1.3978601 3.06218
4.2493901 1.3627501 3.06218
4.2213602 1.45928 3.0999999
3.96802 1.2887501 3.0999999
4.2825799 1.41914 3.0999999
4.13941 1.33008 3.0999999
3.9719501 1.25149 3.0999999
4.0094099 1.44286 3.06218
4.0865102 1.48685 3.06218
4.2230401 1.25384 3.0999999
4.0300698 1.44037 3.06218
3.9902899 1.40337 3.06218
4.1212001 1.32538 3.0999999
4.06565 1.50855 3.0999999
4.1800799 1.44276 3.06218
4.2188201 1.32865 3.06218
4.2690001 1.24357 3.0999999
4.0794201 1.37358 3.06218
4.1853399 1.21909 3.06218
4.2147598 1.4362 3.0999999
4.0162802 1.34226 3.06218
4.2091699 1.48237 3.06218
4.1912498 1.3986 3.06218
4.2607498 1.47517 3.0999999
4.1615701 1.34126 3.06218
4.2713299 1.1930799 3.06218
4.1979399 1.40479 3.06218
4.19911 1.4173599 3.0999999
4.0230598 1.50927 3.0999999
4.24506 1.23078 3.0999999
3.9665401 1.29927 3.08376
4.0850601 1.3188601 3.0999999
3.9700401 1.29628 3.0999999
4.16503 1.27311 3.0999999
3.9798901 1.26081 3.06218
4.0135102 1.2903 3.06218
4.02703 1.30208 3.06218
4.1796198 1.22972 3.0999999
4.04633 1.3798701 3.06218
4.16366 1.30563 3.06218
4.2463002 1.37819 3.0999999
4.0385699 1.31455 3.06218
4.1464901 1.5062 3.0999999
4.18893 1.46464 3.0999999
3.97859 1.24784 3.06218
4.1153302 1.50035 3.0999999
4.21069 1.4568599 3.06218
4.2413802 1.27929 3.06218
4.09198 1.30794 3.06218
4.0011902 1.34314 3.0999999
4.26475 1.78427 3.0999999
4.1886001 1.4481601 3.06218
4.2799201 1.41215 3.0999999
4.0286999 1.38796 3.0999999
4.2282901 1.40151 3.06218
4.2660799 1.33757 3.0999999
4.23241 1.3202 3.06218
4.21981 1.40031 3.0999999
4.0949202 1.45277 3.06218
4.1212001 1.32538 3.0999999
3.9958799 1.45803 3.06218
4.2730498 1.46372 3.0999999
4.12889 1.84396 3.06218
4.22681 1.18406 3.0999999
3.9678199 1.4902101 3.0999999
4.0240502 1.40633 3.06218
3.97541 1.86797 3.0999999
4.0820699 1.51245 3.06218
4.07057 1.4133101 3.0999999
4.2290802 1.14806 3.0999999
4.0910902 1.46034 3.0999999
4.2351499 1.2487299 3.06218
4.2227502 1.21176 3.06218
4.1547999 1.32503 3.06218
4.1459098 1.35603 3.06218
4.19873 1.3578399 3.06218
3.9665401 1.50674 3.0708399
4.0115299 1.37345 3.0999999
4.0111699 1.28076 3.0999999
3.9929399 1.51229 3.0999999
4.2838602 1.28378 3.06218
4.2308798 1.19596 3.06218
4.1233101 1.83242 3.06218
4.2675099 1.1404099 3.0999999
4.27494 1.45268 3.0999999
4.0068798 1.26228 3.0999999
3.97508 1.39403 3.0999999
4.0606699 1.48623 3.06218
4.1441302 1.52608 3.0999999
4.16366 1.30563 3.06218
4.2623301 1.29793 3.06218
4.1651902 1.24351 3.06218
4.1596999 1.42636 3.06218
4.0577898 1.38845 3.06218
3.9723201 1.51679 3.0999999
4.1332202 1.8532799 3.0999999
4.20257 1.1862 3.06218
4.2409801 1.20375 3.0999999
4.05232 1.31243 3.0999999
4.1594 1.3361599 3.06218
4.2687302 1.44057 3.06218
4.23979 1.39534 3.0999999
4.0285902 1.45986 3.0999999
4.11168 1.5315 3.06218
4.2435598 1.31525 3.06218
4.0140901 1.3470401 3.06218
4.2585802 1.4988 3.0999999
4.01157 1.3104 3.06218
4.2632899 1.2955101 3.06218
4.0273199 1.39992 3.06218
4.2457099 1.3394901 3.0999999
3.9665401 1.8644201 3.0973301
4.0600801 1.35111 3.06218
3.97121 1.4343801 3.0999999
4.1108699 1.37965 3.0999999
4.0190601 1.4850399 3.06218
4.1445699 1.47218 3.0999999
4.25984 1.25519 3.0999999
4.1347098 1.34831 3.06218
4.2638302 1.30839 3.06218
4.1592999 1.4938 3.06218
4.0676999 1.44288 3.06218
4.2385602 1.17334 3.06218
4.0345302 1.48211 3.0999999
4.28336 1.38561 3.0999999
4.17277 1.7927001 3.06218
4.2521701 1.2421 3.06218
4.1108699 1.37965 3.0999999
4.1210999 1.53699 3.06218
4.1697698 1.39438 3.0999999
4.25354 1.4003201 3.06218
4.19696 1.49314 3.0999999
4.1129799 1.30538 3.06218
3.9762399 1.39147 3.06218
3.9786 1.49567 3.0999999
4.21597 1.41195 3.0999999
3.99809 1.32942 3.06218
4.1976199 1.3365 3.0999999
4.16991 1.39876 3.06218
3.9679101 1.2952501 3.06218
4.0668502 1.8571301 3.06218
4.0357599 1.3324 3.06218
4.21347 1.26926 3.0999999
4.1036401 1.84692 3.0999999
4.2346501 1.48627 3.0999999
4.0183201 1.29565 3.0999999
3.9665401 1.27579 3.0750599
4.2756 1.43484 3.0999999
4.2536702 1.1560301 3.06218
4.27564 1.31908 3.06218
4.0292501 1.27933 3.0999999
4.2290802 1.14806 3.0999999
3.99629 1.2636 3.06218
4.2379799 1.20257 3.06218
4.1571498 1.44311 3.0999999
4.0629401 1.43611 3.0999999
3.9958799 1.45803 3.06218
4.1901202 1.18963 3.0999999
4.0411 1.29276 3.0999999
4.0629201 1.47495 3.0999999
3.9707699 1.2944 3.06218
4.0682302 1.41606 3.06218
4.0208001 1.33652 3.0999999
4.1245799 1.3246 3.0999999
4.2002201 1.23401 3.0999999
4.11339 1.45535 3.0999999
4.2147298 1.3085001 3.06218
4.1233101 1.83242 3.06218
4.15731 1.80835 3.06218
4.1359601 1.49461 3.0999999
3.9665401 1.30827 3.0653
4.0011902 1.34314 3.0999999
4.0393801 1.4985501 3.0999999
4.0423498 1.26517 3.06218
4.2151499 1.19419 3.06218
4.1351299 1.47984 3.06218
4.18894 1.5042599 3.0999999
4.0668802 1.34229 3.06218
3.98627 1.2812999 3.06218
4.1002102 1.29755 3.06218
4.2002201 1.23401 3.0999999
3.9665401 1.36966 3.0853701
4.17766 1.38396 3.0999999
4.06743 1.45339 3.06218
3.9665401 1.52403 3.0829799
4.1201701 1.8382601 3.0999999
4.2848501 1.1884201 3.0999999
4.0367999 1.5105 3.06218
4.19873 1.3578399 3.06218
4.04916 1.2618099 3.0999999
3.9897499 1.3431 3.06218
4.1616998 1.2701401 3.06218
4.2813001 1.34048 3.06218
4.24441 1.31882 3.06218
4.2298999 1.47699 3.06218
3.97679 1.34835 3.0999999
4.1345701 1.82219 3.06218
4.05232 1.31243 3.0999999
4.0465102 1.42299 3.0999999
4.2675099 1.1404099 3.0999999
4.0928102 1.3789901 3.0999999
4.1432099 1.43516 3.06218
4.2320199 1.3706501 3.06218
4.0247698 1.8677599 3.06218
4.20821 1.3835599 3.06218
4.02355 1.47789 3.0999999
4.1006699 1.47434 3.0999999
4.2624998 1.45339 3.06218
4.2277098 1.3660901 3.0999999
4.15731 1.80835 3.06218
4.1679902 1.79684 3.06218
3.9665401 1.37919 3.0731001
4.2737498 1.2254 3.0999999
4.22858 1.49288 3.06218
4.0566401 1.86234 3.06218
4.1493902 1.48286 3.0999999
3.9665401 1.30827 3.0653
3.9937401 1.41991 3.0999999
4.2367802 1.23296 3.06218
4.1616998 1.2701401 3.06218
3.9665401 1.40925 3.0766699
4.0880499 1.31558 3.0999999
4.0577898 1.38845 3.06218
4.06493 1.38117 3.06218
4.0638299 1.40272 3.0999999
4.11865 1.46231 3.0999999
4.24506 1.23078 3.0999999
4.2493401 1.1473 3.0999999
3.98228 1.4401799 3.06218
4.06636 1.45068 3.06218
4.0932202 1.32838 3.0999999
3.97279 1.37003 3.06218
4.1332202 1.8532799 3.0999999
4.25351 1.3286099 3.0999999
4.2829099 1.4637001 3.0999999
4.08251 1.27293 3.06218
4.1717901 1.23306 3.0999999
3.9665401 1.27727 3.0936999
4.0690699 1.45673 3.06218
4.0681801 1.36859 3.06218
4.0230598 1.50927 3.0999999
3.9707301 1.42672 3.0999999
4.1212001 1.32538 3.0999999
3.9665401 1.45805 3.0959899
3.9665401 1.29778 3.08478
4.19344 1.2955 3.0999999
4.0844498 1.4565099 3.0999999
4.1872501 1.4211299 3.0999999
4.2219601 1.30876 3.0999999
4.0865102 1.48685 3.06218
4.18894 1.5042599 3.0999999
4.0374098 1.51002 3.06218
4.0850601 1.3188601 3.0999999
4.13625 1.28286 3.0999999
4.1746001 1.8075 3.06218
4.2039599 1.15397 3.06218
4.0375299 1.8620501 3.06218
4.0247698 1.8677599 3.06218
4.0686498 1.25677 3.06218
4.2339301 1.14618 3.0999999
4.0636702 1.4525 3.06218
4.2729201 1.38091 3.06218
4.0367999 1.5105 3.06218
4.12328 1.50972 3.06218
4.0022001 1.45566 3.06218
3.98211 1.278 3.06218
4.0139298 1.3627501 3.06218
4.2744298 1.14748 3.0999999
4.0184999 1.26423 3.0999999
4.22153 1.3771501 3.0999999
3.9665401 1.31379 3.0819499
4.2782998 1.35401 3.0999999
4.27564 1.31908 3.06218
3.9665401 1.30827 3.0653
4.0036602 1.26843 3.06218
4.0065498 1.85824 3.06218
4.0608802 1.4111201 3.0999999
4.1564898 1.27072 3.0999999
4.01896 1.46973 3.06218
4.0391698 1.43849 3.0999999
4.1561999 1.33369 3.06218
4.2014298 1.46022 3.06218
4.0720501 1.32877 3.0999999
3.9707301 1.42672 3.0999999
4.1509199 1.35974 3.0999999
4.0835099 1.39382 3.0999999
4.0863299 1.84548 3.0999999
4.1726198 1.49895 3.0999999
4.1901202 1.18963 3.0999999
3.97679 1.34835 3.0999999
4.19449 1.15636 3.0999999
3.9892099 1.85514 3.06218
4.2162399 1.3032 3.0999999
3.9852901 1.28504 3.0999999
4.1258101 1.83476 3.0999999
4.0600801 1.35111 3.06218
4.1127501 1.4407901 3.06218
4.1687598 1.4557199 3.06218
4.05478 1.45933 3.0999999
4.2290802 1.14806 3.0999999
3.9665401 1.50823 3.0716801
3.9665401 1.50823 3.0716801
4.0682302 1.41606 3.06218
4.06141 1.49696 3.06218
4.1382198 1.38231 3.0999999
4.2339301 1.14618 3.0999999
4.2431002 1.39201 3.06218
4.1066899 1.34461 3.0999999
4.2751899 1.39696 3.0999999
3.98102 1.4584301 3.06218
4.13412 1.4177099 3.06218
4.18679 1.2268699 3.06218
4.02387 1.4491301 3.0999999
4.1101999 1.83701 3.0999999
4.0835099 1.39382 3.0999999
4.1104298 1.32267 3.0999999
3.9852901 1.28504 3.0999999
4.0096302 1.34009 3.0999999
4.2568202 1.46697 3.0999999
4.0900898 1.53512 3.0999999
4.26372 1.4311 3.06218
4.0766401 1.45941 3.06218
4.0835099 1.39382 3.0999999
4.0285902 1.45986 3.0999999
4.01157 1.3104 3.06218
4.1424198 1.34455 3.0999999
4.1802101 1.2591799 3.0999999
4.1271 1.26826 3.06218
4.1936102 1.49676 3.06218
4.0910902 1.46034 3.0999999
4.0991502 1.25212 3.0999999
4.1251502 1.30118 3.0999999
4.0391698 1.43849 3.0999999
4.09198 1.30794 3.06218
3.9852901 1.28504 3.0999999
3.9665401 1.27968 3.0938599
4.1034598 1.35045 3.06218
4.14854 1.26762 3.06218
3.9715099 1.4283 3.0999999
4.0006299 1.3318501 3.06218
4.27633 1.31536 3.0999999
4.06636 1.45068 3.06218
4.13871 1.3025301 3.0999999
4.0222201 1.4029 3.0999999
4.1153102 1.42951 3.0999999
3.9929399 1.51229 3.0999999
4.2245402 1.40939 3.06218
4.1925502 1.4934601 3.0999999
4.0455198 1.33973 3.0999999
4.2114501 1.49348 3.0999999
4.0586901 1.30655 3.06218
4.0973902 1.86392 3.06218
4.2472501 1.43897 3.0999999
4.1945701 1.38905 3.06218
4.26475 1.78427 3.0999999
4.00139 1.25339 3.06218
4.2227502 1.21176 3.06218
4.19104 1.43929 3.06218
4.0054598 1.36687 3.06218
4.0465202 1.3705699 3.0999999
4.13164 1.4209 3.06218
4.0046401 1.4165699 3.06218
4.1266899 1.47115 3.06218
4.0719199 1.49879 3.06218
4.2188201 1.32865 3.06218
4.0946002 1.86534 3.06218
4.1835499 1.3171 3.0999999
4.2457299 1.45741 3.06218
4.0681801 1.36859 3.06218
4.0475402 1.34434 3.06218
4.2367802 1.23296 3.06218
4.13164 1.4209 3.06218
4.21597 1.41195 3.0999999
4.2413301 1.28131 3.06218
4.1041098 1.3249 3.06218
3.9876001 1.31075 3.06218
4.0475402 1.34434 3.06218
4.1244798 1.43209 3.06218
4.1746001 1.8075 3.06218
3.9665401 1.4590501 3.06742
4.03021 1.38766 3.0999999
4.1761298 1.25033 3.0999999
4.2098999 1.18121 3.0999999
4.27494 1.45268 3.0999999
4.2459402 1.79098 3.0999999
4.0766501 1.33139 3.06218
4.19449 1.15636 3.0999999
4.1427398 1.34673 3.06218
4.06564 1.38043 3.06218
4.12679 1.51903 3.06218
4.1890602 1.31654 3.0999999
4.1346402 1.4853899 3.06218
3.9665401 1.3660901 3.0905099
4.1611099 1.81285 3.0999999
4.0391698 1.43849 3.0999999
4.0391698 1.43849 3.0999999
4.1180601 1.28636 3.06218
3.97859 1.24784 3.06218
4.1679902 1.79684 3.06218
4.1827102 1.48289 3.06218
4.02742 1.39869 3.06218
4.2114501 1.49348 3.0999999
4.0583 1.50687 3.06218
4.2512498 1.2324899 3.0999999
4.1087699 1.5218199 3.0999999
3.97541 1.86797 3.0999999
4.23241 1.3202 3.06218
4.1638899 1.24614 3.06218
3.9665401 1.42588 3.08799
4.15731 1.80835 3.06218
4.0292501 1.27933 3.0999999
4.04564 1.32002 3.0999999
4.1245799 1.3246 3.0999999
4.26963 1.23888 3.0999999
4.2530799 1.34001 3.0999999
4.2644901 1.33325 3.0999999
4.1346002 1.49717 3.06218
3.9679401 1.44013 3.0999999
4.1549301 1.39538 3.06218
4.0989799 1.3714 3.06218
4.0601702 1.29005 3.0999999
4.2606101 1.78945 3.06218
4.0766501 1.33139 3.06218
4.1303101 1.22104 3.06218
4.1208401 1.39092 3.0999999
4.0601702 1.29005 3.0999999
4.2570701 1.3792 3.0999999
4.2164502 1.38357 3.0999999
4.1006699 1.47434 3.0999999
3.9665401 1.50823 3.0716801
4.20191 1.2986701 3.06218
4.1972499 1.47782 3.06218
4.2413802 1.27929 3.06218
3.9665401 1.29778 3.08478
4.14854 1.26762 3.06218
4.2616601 1.34946 3.0999999
4.1742702 1.45631 3.0999999
4.2526999 1.4329 3.0999999
4.0300698 1.44037 3.06218
4.1500502 1.40448 3.0999999
4.1339302 1.82107 3.06218
3.97121 1.4343801 3.0999999
4.14854 1.26762 3.06218
4.1127501 1.4407901 3.06218
4.1925502 1.4934601 3.0999999
3.98089 1.33754 3.0999999
3.9665401 1.26197 3.08251
4.0286398 1.3674999 3.06218
4.0273199 1.39992 3.06218
4.11795 1.46303 3.06218
3.98507 1.3782099 3.0999999
4.13625 1.28286 3.0999999
4.2413802 1.27929 3.06218
4.1746001 1.8075 3.06218
3.9665401 1.5065399 3.0987501
4.2608299 1.43678 3.0999999
4.2226801 1.42387 3.06218
4.0707202 1.4496599 3.0999999
3.9709301 1.4686 3.06218
4.0566401 1.86234 3.06218
4.1441302 1.52608 3.0999999
3.9665401 1.45805 3.0959899
4.23979 1.39534 3.0999999
4.2195001 1.14446 3.0999999
4.2539101 1.38868 3.0999999
4.1031699 1.85438 3.06218
4.0608501 1.32513 3.0999999
4.2459402 1.79098 3.0999999
3.9721301 1.30972 3.06218
4.23241 1.3202 3.06218
4.1127501 1.4407901 3.06218
4.1968198 1.22965 3.06218
4.1176701 1.8639801 3.06218
4.2624998 1.45339 3.06218
4.1925902 1.29418 3.06218
4.0190601 1.4850399 3.06218
4.0012598 1.38548 3.06218
4.06705 1.41517 3.06218
4.19104 1.43929 3.06218
4.0711398 1.42935 3.06218
4.1248798 1.85137 3.0999999
4.2147498 1.32311 3.0999999
4.2196999 1.4573801 3.0999999
3.9865 1.42757 3.06218
4.04633 1.3798701 3.06218
4.1486001 1.21785 3.06218
4.1936102 1.49676 3.06218
4.1324501 1.37287 3.06218
4.1901202 1.18963 3.0999999
4.11168 1.5315 3.06218
3.96912 1.2561001 3.06218
3.9693 1.52268 3.06218
4.1726198 1.49895 3.0999999
4.08038 1.86703 3.06218
3.97263 1.40999 3.0999999
4.1041799 1.46257 3.0999999
4.2651601 1.4083101 3.06218
4.2202301 1.33182 3.06218
4.2488399 1.4361 3.0999999
4.1406498 1.36099 3.0999999
3.9665401 1.8559999 3.08165
4.2729702 1.457 3.0999999
3.97543 1.44192 3.06218
4.1495399 2.0505099 3.0999999
4.0011902 2.1149299 3.0999999
4.0536098 2.2941301 3.06218
3.9665401 2.77859 3.0727999
4.2403898 2.4063699 3.06218
4.1175399 1.8710001 3.06218
4.1473699 2.0601299 3.06218
4.23348 2.14483 3.0999999
4.1507802 2.2871301 3.0999999
3.9665401 2.6945601 3.0755701
4.05267 2.83043 3.0999999
4.0939898 2.3234301 3.06218
4.2655101 2.1936901 3.0999999
4.1541901 2.0847499 3.0999999
4.0920701 2.0991199 3.0999999
4.0279899 1.99169 3.06218
3.9665401 2.25738 3.0671999
4.0520701 2.1740899 3.06218
4.2315001 2.1981399 3.0999999
4.0332398 2.0661299 3.06218
3.9665401 2.4137299 3.0634799
4.2610998 2.4317 3.0999999
4.1333599 2.7218101 3.0999999
4.0840402 2.2381899 3.06218
4.1110601 2.7472899 3.0999999
4.0085101 2.6651199 3.06218
4.0475602 2.86011 3.0999999
4.2527299 2.1093099 3.06218
4.2667398 2.3319299 3.06218
3.9665401 2.38834 3.0698199
4.0019202 2.6138899 3.06218
4.1736598 2.1765101 3.06218
4.0623398 2.77665 3.06218
4.1079602 2.6830499 3.06218
4.0847301 1.9008501 3.0999999
4.0494099 2.6949201 3.0999999
4.2233801 2.3517499 3.06218
3.9913199 2.3747699 3.06218
4.1536798 2.3134501 3.0999999
3.9695001 2.17419 3.0999999
3.9665401 2.3357899 3.09286
3.9978099 2.0871999 3.0999999
4.0735402 2.1465099 3.0999999
3.97541 2.6660199 3.0999999
4.2398901 2.1396301 3.06218
4.1070299 2.0897501 3.06218
4.0292702 1.9771399 3.0999999
4.0355201 2.74951 3.06218
4.0387902 2.34658 3.06218
3.9806001 2.67746 3.0999999
4.0300202 2.8253601 3.06218
4.0169902 1.93014 3.0999999
4.2748799 2.1853099 3.06218
4.1990199 2.27284 3.0999999
4.1543698 2.26772 3.0999999
4.1187901 2.38674 3.06218
4.0725899 2.1649301 3.0999999
4.1556802 2.6823201 3.0999999
4.2544699 2.3662901 3.06218
4.04249 2.76827 3.06218
4.20611 2.2018299 3.0999999
4.0341201 2.2458301 3.06218
4.0355201 2.74951 3.06218
3.9910901 2.0162399 3.06218
4.18011 2.16942 3.06218
4.0315399 2.7125001 3.0999999
4.05755 2.20192 3.0999999
4.0604401 2.3320999 3.0999999
3.9764099 2.48422 3.06218
4.0480199 1.98897 3.0999999
4.0424099 2.14079 3.0999999
3.9972 2.40535 3.06218
4.0325098 2.6614599 3.06218
4.0661502 2.3124199 3.0999999
4.2857399 2.35621 3.06218
4.0451999 2.2676301 3.0999999
3.9991901 2.1015699 3.06218
4.0040302 2.71457 3.0999999
4.1417298 2.26898 3.0999999
4.1736598 2.1765101 3.06218
3.9665401 2.52491 3.0689099
4.0169001 2.36536 3.0999999
4.03721 2.3498199 3.0999999
3.9825499 2.59407 3.0999999
4.2388101 2.3915999 3.0999999
4.1114502 2.07197 3.0999999
4.0570202 2.29668 3.06218
4.13486 2.35343 3.06218
3.9744699 2.29164 3.0999999
3.9665401 2.8359699 3.08408
4.09761 2.10097 3.0999999
3.97541 1.86797 3.0999999
4.1914501 2.1881101 3.06218
4.0927801 2.3399799 3.0999999
4.13483 2.1533899 3.0999999
4.0162301 2.7469399 3.06218
4.2857399 2.35621 3.06218
3.9789801 2.7207699 3.0999999
4.1294498 2.29387 3.0999999
4.0302501 2.04919 3.06218
3.9944899 2.2951701 3.0999999
4.1118798 2.0125101 3.06218
4.0360699 1.94525 3.0999999
4.0458202 2.68155 3.0999999
4.0376101 2.37865 3.0999999
4.0452199 2.4001 3.0999999
4.2757902 2.4853699 3.06218
3.9665401 2.10093 3.0691299
4.1294098 2.3050101 3.06218
4.10919 2.3377199 3.06218
4.2289801 2.11222 3.06218
3.9665401 2.809 3.0761299
4.2694001 2.3203399 3.06218
4.2179999 2.08652 3.0999999
4.1079602 2.6830499 3.06218
4.1112399 2.1258199 3.0999999
3.9665401 2.6031499 3.0741999
3.9865699 2.86183 3.06218
4.09691 2.06319 3.0999999
4.1529298 2.22668 3.0999999
4.1557598 2.3615201 3.0999999
3.9665401 1.90424 3.0855401
4.0576501 2.0676 3.06218
4.08885 2.04087 3.06218
4.24016 2.40502 3.06218
3.9739599 2.81953 3.06218
4.22856 2.1361899 3.06218
4.1753001 2.3134999 3.06218
4.06113 2.34832 3.06218
4.0310202 2.0420401 3.0999999
3.98136 2.51179 3.0999999
3.9665401 1.96532 3.08602
4.0296402 2.7691 3.0999999
4.0685201 2.2074201 3.06218
4.1656599 2.306 3.0999999
3.96666 2.4881599 3.06218
4.1079602 2.6830499 3.06218
4.2859302 2.45767 3.06218
4.0181699 2.31533 3.0999999
4.2220802 2.39258 3.0999999
4.01509 2.7995999 3.0999999
4.1146898 2.34147 3.0999999
3.9665401 1.92173 3.0784199
4.1003799 2.0668499 3.0999999
4.0847301 1.9008501 3.0999999
4.0974202 2.22844 3.06218
4.06986 2.7439201 3.06218
4.1054001 2.16239 3.06218
4.0632 2.1238 3.0999999
4.0497899 1.94129 3.0999999
3.9990499 2.1264901 3.06218
4.2339101 2.24541 3.0999999
3.9753101 2.36183 3.06218
4.2772598 2.37517 3.0999999
3.9884901 2.5102501 3.06218
4.1132898 2.3312199 3.06218
4.2075801 2.10536 3.06218
3.9978099 2.0871999 3.0999999
3.9719901 2.7061 3.0999999
4.1224098 2.2088001 3.0999999
4.00002 2.12481 3.0999999
4.0135598 1.93922 3.06218
4.2212601 2.2818 3.06218
4.0767398 2.0504501 3.0999999
4.2207899 2.34337 3.06218
4.0767002 1.95601 3.0999999
4.0128698 2.1993101 3.06218
3.9718499 2.85623 3.06218
3.9665401 1.8849 3.06762
3.9869001 2.7523301 3.06218
4.1059799 2.30932 3.0999999
4.2670999 2.1477399 3.0999999
4.2233801 2.3517499 3.06218
4.2795401 2.33004 3.06218
4.2586598 2.4394901 3.0999999
4.1273799 2.2256899 3.06218
4.0293298 2.2485001 3.0999999
4.01087 1.94057 3.0999999
4.1957102 2.3264999 3.06218
3.9665401 2.35131 3.08287
3.9877999 2.09571 3.06218
4.2704802 2.6742799 3.06218
4.2577 2.3622401 3.0999999
4.13483 2.1533899 3.0999999
3.98384 2.5545101 3.06218
4.1473699 2.0601299 3.06218
4.0581698 2.13446 3.06218
4.0437799 2.0994301 3.06218
4.2239099 2.43155 3.06218
4.0351601 2.7604101 3.0999999
4.0784702 2.02616 3.06218
3.99945 2.0527899 3.0999999
3.9857199 2.5612199 3.06218
4.1043701 2.3516099 3.0999999
4.0623999 2.1592801 3.0999999
4.0841298 2.0302899 3.0999999
4.2764101 2.5043299 3.06218
4.0939002 2.37902 3.0999999
4.23699 2.1224699 3.06218
3.9802799 2.5171599 3.0999999
4.0085101 2.6651199 3.06218
4.0922799 2.32809 3.06218
4.2184501 2.1282401 3.0999999
4.24893 2.1263299 3.06218
3.9716799 2.0430901 3.0999999
4.09828 2.10818 3.0999999
4.0823998 2.09319 3.0999999
4.2379398 2.3338399 3.0999999
4.24927 2.3022001 3.0999999
4.0439601 2.0334599 3.0999999
4.0729299 2.39256 3.06218
3.98034 2.3229001 3.06218
3.9704101 2.5228901 3.06218
4.2325501 2.12448 3.06218
3.9756899 2.05355 3.06218
3.9870501 2.3942299 3.0999999
3.9665401 2.7878799 3.0959499
4.2825999 2.13203 3.0999999
4.23528 2.6557701 3.0999999
3.99493 2.4930899 3.06218
4.0667601 1.93806 3.06218
4.17802 2.1990099 3.06218
4.2832899 2.4712999 3.06218
4.0942898 2.7119701 3.0999999
4.0002999 2.3210199 3.06218
4.1055598 2.1718299 3.0999999
4.0260801 2.20087 3.06218
4.0531101 2.7737601 3.06218
4.0147099 1.87023 3.06218
4.1953502 2.3887801 3.0999999
4.1495399 2.0505099 3.0999999
4.0450602 1.9421901 3.0999999
4.2615399 2.2250199 3.0999999
4.1452699 2.2414801 3.06218
4.2652602 2.6380601 3.06218
4.1115499 2.7070501 3.0999999
4.0638099 1.8758301 3.06218
3.9891801 2.8498099 3.0999999
3.96666 2.4881599 3.06218
4.2672601 2.64641 3.06218
4.2735 2.3798499 3.0999999
4.0280199 2.80531 3.0999999
4.0181298 2.2957599 3.0999999
4.0508599 2.84986 3.0999999
4.0341201 2.2458301 3.06218
3.9937999 2.5634999 3.06218
4.1658702 2.10741 3.0999999
4.2192998 2.3856001 3.06218
4.17873 2.3185699 3.0999999
4.0348802 2.8155899 3.0999999
4.0475602 2.86011 3.0999999
3.9769001 2.14186 3.06218
4.24927 2.3022001 3.0999999
4.10219 2.3252499 3.06218
3.9665401 2.2383699 3.0913
3.9812 2.0950799 3.0999999
3.9665401 2.7030301 3.07037
4.1367102 2.09273 3.06218
4.0438299 2.8589799 3.0999999
4.0032902 2.45069 3.0999999
4.04983 2.3164101 3.06218
4.2127399 2.3176701 3.0999999
4.2753701 2.34215 3.06218
4.2507501 2.2767501 3.0999999
3.9665401 2.43293 3.09477
4.1085 2.09163 3.06218
4.0267601 1.98202 3.06218
4.1458101 2.16451 3.0999999
4.0767002 1.95601 3.0999999
3.9764099 2.48422 3.06218
4.0872798 2.73155 3.06218
3.9676199 2.2186999 3.06218
4.0339899 2.3411701 3.0999999
4.07409 2.0671899 3.0999999
4.14293 2.3340399 3.0999999
3.9665401 2.84303 3.0857799
4.0599499 2.3187001 3.06218
3.9733701 2.73207 3.0999999
4.158 2.3359301 3.0999999
3.9756899 2.05355 3.06218
4.0474801 2.2593 3.06218
3.9665401 2.35131 3.08287
4.1206598 2.06832 3.0999999
4.0323 2.3143599 3.06218
3.9877901 1.9147201 3.06218
4.1947298 2.3431001 3.06218
4.0348701 2.4036701 3.0999999
4.2799501 2.1934299 3.0999999
3.9997799 2.0190401 3.06218
4.0063801 1.9293 3.06218
3.9665401 1.90424 3.0855401
4.2673898 2.49751 3.06218
4.1441898 2.28297 3.06218
3.9881899 2.50001 3.06218
3.9804599 2.0888901 3.06218
4.0585399 2.11166 3.0999999
4.28512 2.09378 3.0999999
4.2804198 2.3740101 3.0999999
4.24821 2.6256101 3.0999999
4.1101699 2.2470901 3.0999999
4.19309 2.2277801 3.06218
4.1637402 2.3942201 3.06218
4.0139799 2.7265699 3.0999999
3.9665401 2.8192799 3.07845
4.06252 2.16766 3.06218
3.9757199 2.19221 3.06218
4.2536201 2.4623201 3.0999999
3.9665401 2.4064 3.0695801
4.1146498 2.1173799 3.06218
3.9913199 2.3747699 3.06218
3.99663 2.15804 3.06218
4.2507501 2.2767501 3.0999999
4.2098498 2.2574799 3.06218
4.0874 1.90387 3.0999999
4.2220802 2.39258 3.0999999
4.1040602 1.88413 3.0999999
4.0231099 1.88625 3.06218
4.0282302 2.0388401 3.06218
3.9676199 2.2186999 3.06218
3.9817801 2.06796 3.06218
3.9957399 2.77581 3.06218
4.11131 2.3283 3.0999999
4.1285601 2.2235799 3.06218
4.0152402 2.70158 3.0999999
4.1434102 2.35851 3.0999999
4.2319102 2.3049099 3.0999999
4.0500898 2.7764599 3.0999999
4.1112399 2.1258199 3.0999999
3.97928 2.18558 3.0999999
4.03195 2.2367499 3.06218
4.20715 2.3561001 3.0999999
4.1033201 2.3295901 3.06218
4.2859302 2.45767 3.06218
3.9665401 2.1833701 3.0836599
4.0787001 2.1524 3.0999999
3.9850299 2.61566 3.06218
4.04107 2.6756401 3.06218
4.0922799 2.32809 3.06218
4.04884 2.2072501 3.06218
3.9665401 2.35355 3.08131
4.2653799 2.4448299 3.0999999
3.9779201 2.8125999 3.0999999
3.9863501 2.5527799 3.0999999
4.1216102 2.08812 3.0999999
4.0536399 1.9500999 3.0999999
3.9986601 2.36009 3.06218
4.2090001 2.3559501 3.0999999
3.9742401 2.2611599 3.0999999
4.2808199 2.26004 3.06218
4.0894799 2.0394199 3.0999999
4.04637 2.2927001 3.0999999
4.2186298 2.2604001 3.06218
4.0194898 1.90583 3.06218
4.1403098 2.11637 3.0999999
4.1463199 2.3670599 3.06218
4.0947199 2.77812 3.06218
3.9665401 2.3849499 3.0723
4.05265 2.1245799 3.0999999
4.0973101 2.13166 3.0999999
3.99247 2.3071499 3.06218
3.9802599 2.56634 3.0999999
4.1753001 2.3134999 3.06218
4.1082802 2.0446501 3.06218
4.1620202 2.3239801 3.0999999
4.06709 2.7337501 3.06218
4.0866499 2.3274801 3.0999999
4.0809102 2.0876701 3.06218
4.1006198 1.95842 3.06218
4.0167599 2.7132699 3.06218
4.20508 2.20821 3.0999999
4.1681099 2.6914301 3.0999999
4.2665501 2.45 3.06218
4.04809 2.40397 3.0999999
4.0637598 2.25827 3.06218
4.1206698 2.7253599 3.06218
4.1855302 2.2256999 3.06218
4.0991902 2.2495899 3.0999999
3.96826 2.5006399 3.06218
4.0774398 2.85184 3.06218
4.1395402 2.3222799 3.0999999
4.24896 2.65769 3.06218
4.1902699 2.07743 3.0999999
4.1159501 2.3912799 3.0999999
3.9665401 2.08336 3.0922301
4.05267 2.83043 3.0999999
4.0440302 1.89691 3.06218
4.2323599 2.16084 3.0999999
4.1292801 2.37727 3.06218
4.2772102 2.1163099 3.06218
4.2832899 2.4712999 3.06218
4.0830002 2.19627 3.06218
3.9665401 2.4064 3.0695801
4.09725 1.87551 3.06218
4.0704002 2.2831299 3.06218
3.99611 2.07934 3.06218
3.9665401 2.7878799 3.0959499
3.9665401 2.1207099 3.07584
4.1273799 2.2256899 3.06218
4.0864801 2.3680899 3.0999999
4.0313101 2.4142599 3.0999999
3.9665401 2.5598099 3.0773699
4.0830002 2.19627 3.06218
3.97507 2.81094 3.0999999
4.2325501 2.12448 3.06218
4.1768298 2.27191 3.0999999
3.97019 2.41611 3.0999999
4.0043998 1.9826601 3.0999999
4.0055699 2.16468 3.0999999
4.06709 2.7337501 3.06218
4.0293899 2.0417199 3.06218
4.12326 2.0503299 3.06218
4.2239099 2.43155 3.06218
4.0169902 1.93014 3.0999999
3.9704101 2.5228901 3.06218
4.0837798 2.18888 3.0999999
4.2769599 2.1394401 3.0999999
4.0341802 2.42975 3.06218
3.97205 1.92181 3.06218
4.1942401 2.6680601 3.06218
4.2207899 2.34337 3.06218
3.9918499 2.2184899 3.06218
3.9665401 2.3849499 3.0723
4.1546602 2.24265 3.06218
4.1320701 2.69419 3.0999999
4.1539402 2.1159 3.06218
4.0075598 2.8611801 3.06218
4.0665498 2.85886 3.06218
4.0325899 1.96097 3.0999999
4.06669 2.26647 3.0999999
4.0086498 2.4475801 3.0999999
4.2478199 2.1681299 3.0999999
4.1038599 2.13113 3.06218
4.2325501 2.12448 3.06218
4.0587001 2.1112599 3.06218
4.2745199 2.3461001 3.06218
3.9849899 2.5465801 3.0999999
3.9665401 2.4477501 3.0866899
3.9884801 2.0028501 3.0999999
4.1756701 2.67677 3.06218
4.07161 2.25086 3.0999999
4.1075702 2.2406499 3.0999999
4.0172501 2.8139 3.0999999
4.1902399 2.18484 3.06218
4.2859302 2.45767 3.06218
4.0023398 2.79001 3.0999999
4.2483902 2.3141301 3.0999999
4.1982298 2.2381301 3.0999999
4.0387902 2.34658 3.06218
3.97751 1.92731 3.06218
4.0192399 2.1791899 3.06218
4.0855799 1.92047 3.06218
4.0341201 2.2458301 3.06218
4.2790499 2.41588 3.06218
3.96861 2.4067199 3.0999999
4.0240502 2.0425601 3.06218
4.0183301 2.34971 3.0999999
4.1775899 2.08026 3.06218
3.9665401 1.94488 3.0787101
4.0145001 2.1526799 3.0999999
3.97155 2.05036 3.06218
4.24893 2.1263299 3.06218
4.0055699 2.16468 3.0999999
4.08079 2.1219001 3.06218
4.1169701 2.1413901 3.0999999
4.2377801 2.35656 3.06218
4.1320701 2.69419 3.0999999
3.9665401 2.2232599 3.07219
4.0282302 2.0388401 3.06218
4.2306099 2.6782999 3.0999999
4.2382798 2.3194699 3.0999999
4.1681099 2.6914301 3.0999999
4.1040602 1.88413 3.0999999
4.2745199 2.3461001 3.06218
4.0773301 2.09394 3.06218
4.2563 2.21508 3.06218
4.10572 2.2244699 3.0999999
4.1982298 2.2381301 3.0999999
4.1115499 2.7070501 3.0999999
3.96826 1.8942 3.0999999
4.0293899 2.0417199 3.06218
3.9665401 2.11343 3.07023
3.9765601 1.9380701 3.0999999
4.1325498 2.1071 3.0999999
3.9983599 2.3761499 3.0999999
4.1582098 2.3006001 3.06218
3.97557 2.43501 3.06218
4.1638799 2.1184199 3.0999999
4.2111702 2.2216799 3.06218
4.0231099 1.88625 3.06218
3.9804499 2.02582 3.0999999
4.0855799 1.92047 3.06218
3.9665401 2.41295 3.0632501
4.0596499 2.6807499 3.06218
4.02068 2.3543601 3.06218
4.23528 2.6557701 3.0999999
4.05374 2.1512301 3.06218
4.0604601 1.9021 3.06218
3.98034 2.3229001 3.06218
4.1016102 2.34552 3.06218
4.1403098 2.6814699 3.0999999
4.1832199 2.2314501 3.06218
3.9812 2.0950799 3.0999999
4.2594199 2.32358 3.0999999
4.24016 2.40502 3.06218
3.9665401 2.2095499 3.0755899
4.1075702 2.2406499 3.0999999
3.9665401 2.43293 3.09477
4.0230198 2.02038 3.0999999
4.09547 2.07656 3.06218
3.9778399 2.41031 3.06218
4.1073699 2.7416 3.06218
4.2055001 2.27526 3.06218
4.0230198 2.02038 3.0999999
4.0718298 2.6917901 3.06218
4.0177898 2.09389 3.06218
4.20508 2.20821 3.0999999
4.2694402 2.1719699 3.06218
3.9811399 2.5343201 3.0999999
4.1587801 2.0787699 3.0999999
4.0341902 2.86731 3.0999999
3.98522 1.95004 3.06218
4.06669 2.26647 3.0999999
4.2821698 2.39224 3.0999999
4.0813398 2.1040201 3.0999999
4.1169701 2.1413901 3.0999999
3.9851601 2.08745 3.0999999
3.9729099 2.2453599 3.0999999
3.9665401 2.8281701 3.06845
3.99663 2.15804 3.06218
3.9990599 2.41346 3.06218
4.0058699 2.35394 3.06218
4.2111702 2.2216799 3.06218
3.9946499 2.7009101 3.0999999
4.1785202 2.33043 3.0999999
3.9974301 2.79249 3.06218
4.0450602 1.9421901 3.0999999
4.2111702 2.2216799 3.06218
4.1120901 2.1529901 3.0999999
4.0464201 2.1501501 3.06218
4.0128698 2.1993101 3.06218
4.2413301 2.2305601 3.06218
3.9802799 2.5171599 3.0999999
4.0127301 2.43221 3.0999999
3.9665401 2.7878799 3.0959499
4.1630502 2.67834 3.06218
4.1784601 2.10584 3.0999999
4.1279202 2.1077199 3.0999999
3.9665401 2.0516801 3.0708399
4.0864801 2.3680899 3.0999999
4.0676498 2.24351 3.0999999
3.97686 2.31865 3.0999999
4.1476202 2.10502 3.0999999
4.0404301 2.13291 3.0999999
3.99842 1.90573 3.0999999
4.0892801 2.23311 3.06218
4.0806198 2.36063 3.06218
3.9854801 1.92282 3.06218
4.2356801 2.2979 3.0999999
4.0071702 2.76156 3.06218
4.0341702 2.28351 3.0999999
4.0900698 2.7685399 3.0999999
4.1070299 2.0897501 3.06218
4.1101999 2.1459799 3.06218
4.1473799 2.32547 3.06218
4.1935701 2.67103 3.0999999
3.97856 2.8359399 3.0999999
4.1735301 2.11816 3.0999999
4.1845498 2.3807299 3.0999999
3.9684 2.64415 3.06218
4.0805202 2.2966399 3.06218
4.0995598 2.09217 3.0999999
4.0290098 2.1324699 3.06218
3.99191 1.93083 3.06218
3.9665401 2.54478 3.0733199
4.0500898 2.7764599 3.0999999
4.00003 2.3739901 3.0999999
4.1119499 2.0176599 3.06218
4.0265598 2.08144 3.06218
4.0820599 2.07635 3.06218
4.0623398 2.77665 3.06218
3.9665401 2.5598099 3.0773699
4.0293999 2.3561101 3.06218
4.0267601 1.98202 3.06218
4.0430598 2.1517301 3.06218
4.1902699 2.07743 3.0999999
3.99489 2.0339301 3.06218
4.1609902 2.2636499 3.0999999
3.97541 1.86797 3.0999999
3.9665401 2.41063 3.08886
4.2167001 2.2848599 3.0999999
3.97069 2.02004 3.06218
4.0052299 2.2448699 3.0999999
4.0872598 1.91619 3.0999999
4.0764198 2.2156701 3.06218
4.2248302 2.22087 3.0999999
4.1785998 2.1142399 3.0999999
4.0321598 2.8013799 3.0999999
4.1694498 2.3180101 3.0999999
4.0271101 2.7261801 3.0999999
4.1320701 2.69419 3.0999999
4.0847301 1.9008501 3.0999999
4.0177898 1.94222 3.06218
4.01157 2.42699 3.0999999
4.1472998 2.2479401 3.06218
4.2594199 2.32358 3.0999999
4.1027198 2.8201301 3.0999999
4.0046902 2.05304 3.0999999
3.9675601 1.99352 3.06218
4.1075401 2.2839401 3.0999999
3.9665401 2.43138 3.06283
4.2198 2.3984799 3.06218
4.1579199 2.0980201 3.06218
4.2557001 2.3352001 3.0999999
4.1243501 2.0529201 3.0999999
3.9719901 2.7061 3.0999999
3.9775701 2.3896101 3.0999999
4.2652602 2.6380601 3.06218
4.0338202 2.3998401 3.06218
4.1596398 2.6819899 3.0999999
3.9665401 2.1472199 3.0829
4.0195599 2.09582 3.0999999
4.1514702 2.21891 3.06218
3.97558 2.2391901 3.0999999
4.2589302 2.3519399 3.0999999
4.2530899 2.14201 3.0999999
4.2184501 2.1282401 3.0999999
4.28475 2.21401 3.06218
4.0377698 2.83534 3.06218
4.2772598 2.37517 3.0999999
3.98419 2.4907 3.0999999
4.2186298 2.2604001 3.06218
3.99283 2.0237999 3.0999999
4.00529 2.78073 3.06218
4.2800398 2.32412 3.06218
4.0739398 2.0049 3.0999999
4.0657902 1.99611 3.06218
4.08813 2.2878301 3.0999999
4.25738 2.2072201 3.0999999
4.1087999 2.1951399 3.0999999
3.97541 2.6660199 3.0999999
4.18011 2.16942 3.06218
4.2839198 2.2184401 3.0999999
4.0092402 2.7569699 3.0999999
3.9739599 2.81953 3.06218
4.2667398 2.3319299 3.06218
4.06604 2.1438701 3.0999999
3.9814401 2.0878601 3.0999999
4.2821698 2.39224 3.0999999
4.0732698 2.0640399 3.06218
4.1273799 2.2256899 3.06218
4.0044899 2.28514 3.06218
4.27773 2.51565 3.0999999
3.9665401 1.8928 3.08569
4.0534201 2.2848699 3.0999999
3.9665401 2.0858099 3.07341
4.0085101 2.1069701 3.06218
4.1139898 2.7675099 3.0999999
4.2444 2.6345301 3.0999999
4.09939 2.78685 3.06218
4.1507802 2.2871301 3.0999999
4.1396098 2.30054 3.0999999
4.1821499 2.1431601 3.0999999
3.9933901 2.83687 3.0999999
4.21943 2.3850601 3.06218
3.9665401 2.4932599 3.09022
4.14293 2.3340399 3.0999999
4.2539701 2.30654 3.06218
4.1079602 2.6830499 3.06218
3.9821701 2.47471 3.0999999
4.0366201 2.34008 3.06218
4.2480001 2.3254399 3.06218
3.9802599 2.56634 3.0999999
4.0587101 2.6703501 3.0999999
4.0092402 2.7569699 3.0999999
4.2375002 2.3633101 3.06218
4.0767398 2.73102 3.0999999
4.0444102 2.82019 3.06218
4.0840402 2.2381899 3.06218
4.1556902 2.2628901 3.06218
4.0685201 2.2074201 3.06218
3.97557 2.43501 3.06218
4.2105999 2.17644 3.0999999
4.00775 2.40891 3.0999999
4.2167001 2.2848599 3.0999999
4.28583 2.15325 3.0999999
4.24016 2.40502 3.06218
4.1069498 2.3587201 3.06218
4.00769 1.89078 3.0999999
4.0665498 2.85886 3.06218
4.0594201 1.96491 3.0999999
3.99857 2.15446 3.06218
4.0500598 2.7790899 3.06218
4.0939002 2.37902 3.0999999
3.9665401 1.92173 3.0784199
4.2289801 2.11222 3.06218
4.05199 2.85747 3.0999999
4.04637 2.2927001 3.0999999
3.97205 1.92181 3.06218
4.0068102 2.08271 3.0999999
4.1112399 2.1258199 3.0999999
4.0009198 2.40679 3.06218
4.0971999 2.7758901 3.0999999
4.2741098 2.48944 3.0999999
4.2501898 2.1327801 3.0999999
4.0032802 2.0887101 3.06218
4.0520701 2.1740899 3.06218
4.0323 2.3143599 3.06218
4.0032902 2.45069 3.0999999
4.1135201 2.7462001 3.06218
3.9828501 2.7757101 3.06218
3.9719901 2.7061 3.0999999
3.9665401 2.0516801 3.0708399
4.03581 2.3341401 3.0999999
3.9665401 2.6571901 3.06968
3.9857199 2.5612199 3.06218
3.99667 2.1037099 3.06218
4.2202601 2.6463001 3.06218
4.2772598 2.37517 3.0999999
4.02143 1.92483 3.0999999
4.0517302 1.9236799 3.0999999
4.12887 2.03631 3.06218
4.2563901 2.17907 3.0999999
3.9964299 2.82494 3.0999999
4.00738 2.2542 3.06218
4.1420999 2.30932 3.0999999
4.0275202 2.77912 3.06218
4.25319 2.12058 3.06218
4.0169001 2.36536 3.0999999
3.9721 2.10724 3.06218
4.1490598 2.16734 3.06218
4.1132898 2.3312199 3.06218
4.1458101 2.16451 3.0999999
4.2815299 2.2214999 3.0999999
3.9665401 2.1735101 3.07583
4.07584 2.12413 3.0999999
4.1841002 2.3627 3.0999999
4.0973101 2.13166 3.0999999
4.1833701 2.35075 3.0999999
4.0500598 2.7790899 3.06218
4.2653999 2.3436501 3.06218
4.1132898 2.3312199 3.06218
4.0796299 1.95613 3.0999999
4.0261798 2.1396799 3.06218
3.9665401 1.94628 3.0629001
4.00741 2.35849 3.06218
4.2536201 2.4623201 3.0999999
3.9665401 2.0152299 3.0848401
4.12394 2.0678999 3.0999999
4.0907698 2.39517 3.06218
3.9665401 1.94311 3.0936501
4.27773 2.51565 3.0999999
3.9911001 2.2135 3.06218
4.0020199 2.00121 3.0999999
4.0823998 2.09319 3.0999999
4.0019102 1.8875099 3.0999999
3.9665401 2.4227099 3.0789001
4.16469 2.3738999 3.0999999
4.1079602 2.6830499 3.06218
4.05267 2.83043 3.0999999
3.9719 1.95213 3.06218
4.1847701 2.19332 3.06218
4.2776799 2.2342 3.06218
3.9760499 2.1115699 3.0999999
4.12218 2.08476 3.06218
4.1010599 2.7602201 3.06218
4.0896401 2.1775301 3.0999999
3.9665401 2.6945601 3.0755701
3.9744699 2.29164 3.0999999
3.9881799 2.6489201 3.0999999
4.0127301 2.43221 3.0999999
3.9944501 2.3215599 3.0999999
3.9951799 2.10586 3.0999999
4.1256299 2.7423799 3.06218
3.98666 2.8569701 3.06218
3.99417 2.5892 3.06218
4.2828398 2.40152 3.06218
4.0120001 2.17488 3.0999999
3.9742401 2.2611599 3.0999999
3.99333 2.16187 3.06218
4.07196 2.84304 3.0999999
3.9789801 2.7207699 3.0999999
3.9709001 2.4699399 3.0999999
4.02039 2.23403 3.06218
4.0145001 2.1526799 3.0999999
4.2231898 2.3431699 3.0999999
4.0517302 1.9236799 3.0999999
4.0131402 1.91047 3.0999999
4.19629 2.3550999 3.0999999
4.0896502 1.89037 3.0999999
4.2413902 2.3257999 3.0999999
4.1902699 2.07743 3.0999999
4.0128698 2.1993101 3.06218
3.9888899 2.4948201 3.0999999
3.9810801 2.3308499 3.0999999
4.0553498 2.3903501 3.0999999
3.99489 2.0339301 3.06218
4.0771599 2.8041999 3.06218
4.14218 2.043 3.0999999
3.9761901 2.3714099 3.0999999
4.2735 2.3798499 3.0999999
4.1047001 1.9858201 3.06218
4.0052299 2.2448699 3.0999999
4.1256299 2.7423799 3.06218
3.9789801 2.7207699 3.0999999
4.2678199 2.6628201 3.06218
4.1329598 2.0281999 3.0999999
4.1492901 2.1142099 3.06218
4.0994701 1.92128 3.06218
4.09097 2.03247 3.06218
4.0362401 2.0973799 3.06218
4.1270399 2.3568001 3.06218
4.1292601 2.6967499 3.0999999
3.9757199 2.19221 3.06218
3.9665401 2.32358 3.0866699
3.9665401 2.06866 3.09868
3.9806399 2.8050201 3.0999999
4.0780501 2.7799399 3.06218
4.0131402 1.91047 3.0999999
3.9925599 1.93657 3.06218
4.00529 2.78073 3.06218
4.0865898 2.1273201 3.0999999
4.0314002 2.14185 3.06218
4.1463099 2.35232 3.0999999
4.2470999 2.2061501 3.0999999
3.99771 1.93488 3.0999999
4.0627098 2.1784599 3.0999999
4.2806301 2.5504401 3.06218
3.98593 2.72049 3.06218
3.9735701 1.9894 3.06218
3.9665401 2.6571901 3.06968
3.9860401 2.1479599 3.06218
4.1846399 2.1729701 3.0999999
3.9811399 2.5343201 3.0999999
4.04637 2.2927001 3.0999999
4.0497899 1.94129 3.0999999
4.0321598 2.8013799 3.0999999
4.1115499 2.7070501 3.0999999
3.9793701 2.6905601 3.06218
4.0878601 2.69133 3.0999999
3.9665401 2.6571901 3.06968
4.0583701 2.73669 3.06218
4.0840702 2.8053801 3.06218
3.98034 2.3229001 3.06218
3.9867499 2.2669799 3.0999999
4.2630601 2.26668 3.06218
4.23348 2.14483 3.0999999
4.1224098 2.2088001 3.0999999
3.98527 2.4611299 3.0999999
4.1043701 2.3516099 3.0999999
4.06567 1.94394 3.0999999
4.01544 1.96873 3.06218
4.0894299 1.9436899 3.0999999
4.07201 2.7012701 3.0999999
3.9718001 2.4121699 3.0999999
3.9665401 1.98979 3.0818901
4.2111702 2.2216799 3.06218
4.0063901 2.20259 3.06218
4.2252798 2.2664199 3.0999999
4.0071702 2.76156 3.06218
4.1909399 2.1100399 3.06218
4.2698798 2.3533499 3.0999999
4.2434502 2.43224 3.06218
4.0747299 2.27547 3.06218
4.0278401 2.0088501 3.06218
3.9665401 2.1152 3.07863
4.1690798 2.1564701 3.0999999
4.21943 2.3850601 3.06218
4.0761499 2.2413299 3.06218
4.1761498 2.2551799 3.06218
3.9665401 2.86344 3.09252
3.9665401 2.6571901 3.06968
4.0360699 1.94525 3.0999999
4.0806198 2.36063 3.06218
3.9665401 2.2546501 3.08132
4.1785998 2.1142399 3.0999999
4.0560899 2.8673 3.0999999
4.0806198 2.36063 3.06218
4.2673898 2.49751 3.06218
3.9665401 2.0978601 3.0878699
4.0241699 2.1702299 3.0999999
4.0664902 2.3655701 3.06218
4.0290399 1.9938999 3.0999999
3.98384 2.5545101 3.06218
3.9665401 1.8849 3.06762
4.1269302 2.6844499 3.0999999
4.2083602 2.2142501 3.06218
4.1452699 2.2414801 3.06218
4.0004401 2.8410599 3.0999999
4.2149801 2.13008 3.06218
4.1876001 2.19539 3.0999999
4.1406398 2.32235 3.06218
4.1223102 2.2704301 3.06218
3.97718 2.0055001 3.06218
3.9712 2.86373 3.0999999
3.9665401 2.6351399 3.08214
3.9665401 2.24371 3.07832
4.1017299 2.0339701 3.06218
4.1846399 2.1729701 3.0999999
4.03581 2.3341401 3.0999999
4.23279 2.1877699 3.0999999
4.0314002 2.14185 3.06218
4.0170898 2.12872 3.0999999
4.1075702 2.2406499 3.0999999
3.99862 2.1140299 3.06218
4.1329598 2.0281999 3.0999999
3.97469 2.3620501 3.0999999
4.2478199 2.1681299 3.0999999
4.02143 1.92483 3.0999999
4.2688398 2.12887 3.0999999
4.07163 2.07161 3.06218
4.0172501 2.1910501 3.06218
4.1043701 2.3516099 3.0999999
4.2530899 2.14201 3.0999999
3.98175 2.2132299 3.0999999
4.0092402 2.7569699 3.0999999
4.03338 2.6510799 3.06218
4.1688099 2.6993899 3.0999999
3.9665401 2.43293 3.09477
3.9870501 2.3942299 3.0999999
4.1047201 2.33796 3.06218
4.2527299 2.1093099 3.06218
4.1414599 2.29019 3.0999999
3.98106 2.56265 3.06218
4.2371001 2.1324201 3.06218
4.0455399 2.05825 3.0999999
3.9665401 2.68262 3.0890999
4.1799798 2.20854 3.06218
4.2832899 2.4712999 3.06218
3.9811399 2.5343201 3.0999999
4.1631298 2.4017401 3.06218
4.2501898 2.1327801 3.0999999
4.1645398 2.31441 3.0999999
4.2127399 2.3176701 3.0999999
4.0639901 2.4101501 3.0999999
4.0430598 2.1517301 3.06218
4.2757902 2.4853699 3.06218
3.9851899 2.6005499 3.06218
4.0511999 2.35623 3.0999999
4.2289701 2.1438501 3.06218
4.0761499 2.2413299 3.06218
4.1536798 2.3134501 3.0999999
4.0424099 2.14079 3.0999999
4.0052299 2.2448699 3.0999999
4.2501898 2.1327801 3.0999999
3.9665401 2.08444 3.07918
4.0360298 2.15643 3.0999999
4.0172501 2.1910501 3.06218
3.97856 2.8359399 3.0999999
3.97069 2.02004 3.06218
3.98035 2.35761 3.06218
4.1495099 2.0617099 3.0999999
4.0735402 2.1465099 3.0999999
4.1279202 2.1077199 3.0999999
3.9665401 2.84303 3.0857799
3.9665401 2.1221099 3.09659
4.0281401 1.98957 3.0999999
4.04038 2.2191899 3.06218
4.11237 2.01194 3.06218
4.0304198 2.8461201 3.0999999
4.0253401 1.98106 3.06218
4.26862 2.1066201 3.0999999
3.9718001 2.4121699 3.0999999
3.9665401 2.2304699 3.0952001
4.2563 2.21508 3.06218
4.0859098 2.8501699 3.06218
3.9806399 2.8050201 3.0999999
4.2128201 2.2066801 3.0999999
4.1707902 2.1600201 3.0999999
4.0368199 2.80093 3.0999999
4.2179999 2.08652 3.0999999
3.9709201 2.0977499 3.0999999
4.2825398 2.3854101 3.06218
4.0532098 2.34481 3.0999999
3.9807999 2.37218 3.0999999
4.00455 2.28392 3.0999999
4.0815501 2.2153299 3.06218
3.9925599 1.90951 3.06218
3.97224 1.98628 3.0999999
4.06252 2.16766 3.06218
4.0002999 2.3210199 3.06218
4.2281199 2.6496799 3.06218
4.09373 2.7658501 3.06218
4.2632699 2.35566 3.06218
4.0416999 2.02037 3.06218
4.1017299 2.0339701 3.06218
3.97558 2.2391901 3.0999999
3.9970601 2.2444201 3.0999999
3.9765799 2.7393401 3.0999999
4.0781102 2.71386 3.0999999
4.0281401 1.98957 3.0999999
3.9822299 2.4212401 3.0999999
3.96753 2.07832 3.0999999
4.1557598 2.3615201 3.0999999
4.0834899 2.0035501 3.06218
4.0632 2.1238 3.0999999
4.1605301 2.07693 3.0999999
4.1579199 2.0980201 3.06218
3.9739299 2.4042799 3.06218
4.1175299 2.7420499 3.06218
4.2086601 2.13673 3.0999999
3.99611 2.07934 3.06218
4.0661402 2.23791 3.0999999
4.2154698 2.68203 3.06218
4.0767398 2.0504501 3.0999999
4.0658698 2.1703899 3.06218
4.1332998 2.1293299 3.06218
4.0802498 2.84078 3.0999999
4.21943 2.3850601 3.06218
4.0351601 2.7604101 3.0999999
4.0310202 2.0420401 3.0999999
4.0529199 1.9747601 3.06218
4.0364299 2.4347401 3.06218
