# .PCD v0.7 - Point Cloud Data file format
VERSION 0.7
FIELDS x y z
SIZE 4 4 4
TYPE F F F
COUNT 1 1 1
WIDTH 345
HEIGHT 1
VIEWPOINT 0 0 0 1 0 0 0
POINTS 345
DATA ascii
1.59852 -0.65851098 0.47394401
1.7610101 -0.65851098 0.35766301
1.40361 -0.65851098 0.27476001
1.68053 -0.65851098 0.236094
1.38826 -0.65851098 0.434255
1.3092999 -0.65851098 0.15229601
1.78511 -0.65851098 0.34092399
1.29396 -0.79330498 0.203394
1.31611 -0.65851098 0.29556799
1.7676899 -0.79330498 0.415052
1.4313101 -0.79330498 0.197007
1.6381299 -0.65851098 0.50564599
1.74902 -0.65851098 0.50226998
1.4816999 -0.79330498 0.147228
1.39088 -0.65851098 0.44613799
1.72088 -0.79330498 0.459281
1.41798 -0.65851098 0.19869
1.61136 -0.79330498 0.14724299
1.70595 -0.65851098 0.442763
1.54203 -0.65851098 0.27082899
1.42275 -0.79330498 0.112857
1.70305 -0.79330498 0.19848301
1.6381299 -0.65851098 0.50564599
1.54844 -0.79330498 0.192518
1.4293801 -0.65851098 0.26235601
1.70816 -0.65851098 0.23912799
1.37402 -0.65851098 0.213872
1.67601 -0.65851098 0.249856
1.51336 -0.79330498 0.188041
1.32994 -0.79330498 0.329492
1.30457 -0.65851098 0.235295
1.74573 -0.65851098 0.47682601
1.35545 -0.79330498 0.118719
1.76362 -0.65851098 0.28375101
1.36764 -0.65851098 0.13370401
1.37047 -0.79330498 0.144775
1.32403 -0.65851098 0.185131
1.74187 -0.65851098 0.396494
1.78739 -0.79330498 0.30897599
1.7171201 -0.65851098 0.29129201
1.3321 -0.65851098 0.42047599
1.73265 -0.65851098 0.45752099
1.6394399 -0.79330498 0.183256
1.72004 -0.79330498 0.42139101
1.56636 -0.65851098 0.51686102
1.51336 -0.79330498 0.188041
1.77872 -0.65851098 0.28498301
1.39754 -0.79330498 0.096277297
1.70508 -0.79330498 0.371068
1.29071 -0.65851098 0.19306201
1.80917 -0.79330498 0.34587601
1.8195601 -0.79330498 0.231305
1.32737 -0.65851098 0.267297
1.73236 -0.65851098 0.177614
1.53792 -0.79330498 0.131791
1.62288 -0.65851098 0.44374001
1.58167 -0.65851098 0.28178099
1.60066 -0.65851098 0.196251
1.80831 -0.79330498 0.29214099
1.7067699 -0.65851098 0.54343098
1.39887 -0.65851098 0.314686
1.39055 -0.65851098 0.22817899
1.59405 -0.79330498 0.20099699
1.38095 -0.79330498 0.16709299
1.70952 -0.79330498 0.45436999
1.8430901 -0.79330498 0.45060101
1.8129801 -0.65851098 0.51015902
1.4955699 -0.65851098 0.512321
1.78511 -0.65851098 0.34092399
1.30032 -0.65851098 0.20295601
1.7519 -0.79330498 0.281443
1.678 -0.65851098 0.236075
1.40097 -0.65851098 0.19364899
1.72004 -0.79330498 0.42139101
1.34948 -0.79330498 0.190219
1.61641 -0.79330498 0.16384199
1.28715 -0.65851098 0.39943299
1.52405 -0.65851098 0.227001
1.81449 -0.79330498 0.43788001
1.66459 -0.65851098 0.15081
1.3321 -0.65851098 0.42047599
1.82831 -0.65851098 0.47657999
1.76803 -0.65851098 0.19402801
1.80125 -0.65851098 0.45121899
1.73194 -0.79330498 0.50696898
1.78649 -0.65851098 0.37824401
1.76035 -0.79330498 0.21404999
1.57226 -0.65851098 0.23963299
1.35993 -0.65851098 0.46462399
1.43534 -0.65851098 0.179552
1.34903 -0.65851098 0.39570501
1.75085 -0.79330498 0.312866
1.54809 -0.65851098 0.24620999
1.63044 -0.65851098 0.34952399
1.38298 -0.79330498 0.221255
1.43976 -0.79330498 0.144714
1.59534 -0.65851098 0.44622099
1.7322299 -0.79330498 0.40766001
1.67466 -0.65851098 0.46482199
1.70166 -0.79330498 0.144592
1.6894701 -0.65851098 0.224255
1.75375 -0.79330498 0.33492199
1.77301 -0.79330498 0.19784699
1.38358 -0.79330498 0.19839901
1.71207 -0.79330498 0.320638
1.6407 -0.79330498 0.129641
1.53404 -0.79330498 0.10371
1.77384 -0.79330498 0.29367399
1.44648 -0.79330498 0.16434801
1.71996 -0.79330498 0.224053
1.52763 -0.65851098 0.172236
1.73692 -0.65851098 0.282965
1.38261 -0.65851098 0.272825
1.67926 -0.79330498 0.470323
1.8430901 -0.79330498 0.45060101
1.65635 -0.65851098 0.38060701
1.4286 -0.79330498 0.0917731
1.84816 -0.79330498 0.27773499
1.30357 -0.79330498 0.36675
1.29563 -0.65851098 0.402632
1.6728801 -0.65851098 0.51541901
1.4474 -0.79330498 0.106268
1.3496701 -0.65851098 0.189239
1.8105 -0.65851098 0.53880501
1.84337 -0.65851098 0.451603
1.3327399 -0.65851098 0.22505
1.63958 -0.65851098 0.50887197
1.60316 -0.65851098 0.180617
1.68382 -0.79330498 0.51092798
1.36323 -0.65851098 0.47489101
1.47579 -0.65851098 0.166585
1.66784 -0.65851098 0.33325499
1.68595 -0.79330498 0.343793
1.32821 -0.65851098 0.451956
1.39994 -0.65851098 0.45626599
1.3349299 -0.65851098 0.473488
1.81449 -0.79330498 0.43788001
1.81328 -0.65851098 0.45357999
1.70952 -0.79330498 0.45436999
1.60329 -0.79330498 0.132514
1.71764 -0.65851098 0.146393
1.3602999 -0.65851098 0.178104
1.40566 -0.79330498 0.13519201
1.45997 -0.79330498 0.18680701
1.70508 -0.79330498 0.371068
1.7029001 -0.79330498 0.41213101
1.7954201 -0.79330498 0.2138
1.6220599 -0.65851098 0.389384
1.34635 -0.65851098 0.21380199
1.3814 -0.79330498 0.131585
1.33816 -0.79330498 0.188706
1.33816 -0.79330498 0.188706
1.69058 -0.65851098 0.19877701
1.83849 -0.79330498 0.338146
1.65543 -0.79330498 0.50232297
1.75519 -0.65851098 0.27253801
1.68683 -0.79330498 0.39507401
1.33279 -0.65851098 0.24391299
1.79119 -0.65851098 0.244426
1.84345 -0.79330498 0.28637999
1.56636 -0.65851098 0.51686102
1.83999 -0.65851098 0.206673
1.43226 -0.65851098 0.200174
1.29138 -0.79330498 0.287797
1.29204 -0.65851098 0.41788399
1.63671 -0.65851098 0.24536499
1.4727 -0.79330498 0.166364
1.48975 -0.79330498 0.197979
1.66027 -0.65851098 0.27682799
1.70727 -0.65851098 0.51895499
1.7024 -0.79330498 0.219376
1.29561 -0.79330498 0.25584501
1.53262 -0.65851098 0.27348799
1.33253 -0.79330498 0.31135499
1.76815 -0.79330498 0.40465
1.35754 -0.65851098 0.15147699
1.81074 -0.65851098 0.196215
1.58033 -0.65851098 0.18193001
1.79136 -0.79330498 0.271622
1.45393 -0.79330498 0.207516
1.84816 -0.79330498 0.27773499
1.4599 -0.65851098 0.25871199
1.79923 -0.79330498 0.42455801
1.62922 -0.79330498 0.247587
1.77845 -0.79330498 0.299786
1.30032 -0.65851098 0.20295601
1.77384 -0.79330498 0.29367399
1.6754 -0.65851098 0.50871801
1.4236701 -0.79330498 0.158384
1.6117001 -0.65851098 0.24436
1.3045 -0.65851098 0.21779799
1.4236701 -0.79330498 0.158384
1.60741 -0.65851098 0.43776301
1.7906801 -0.65851098 0.174513
1.67813 -0.65851098 0.22541299
1.7182699 -0.79330498 0.20478199
1.64174 -0.65851098 0.294911
1.6298 -0.65851098 0.25820199
1.5847501 -0.65851098 0.49254099
1.59926 -0.65851098 0.54336703
1.8243901 -0.65851098 0.170276
1.43098 -0.79330498 0.189888
1.60071 -0.65851098 0.30926201
1.39088 -0.65851098 0.44613799
1.67957 -0.65851098 0.26328099
1.33007 -0.65851098 0.37322199
1.79436 -0.79330498 0.332353
1.35912 -0.79330498 0.24085601
1.84855 -0.79330498 0.42651299
1.85779 -0.65851098 0.180356
1.31283 -0.79330498 0.243773
1.7676899 -0.79330498 0.415052
1.6894701 -0.65851098 0.224255
1.6004601 -0.65851098 0.28443801
1.7519 -0.79330498 0.281443
1.6383899 -0.79330498 0.263993
1.31174 -0.79330498 0.302589
1.36764 -0.65851098 0.13370401
1.5496 -0.79330498 0.111951
1.60806 -0.79330498 0.227506
1.35896 -0.79330498 0.209424
1.29799 -0.79330498 0.222406
1.86902 -0.79330498 0.37901801
1.78755 -0.79330498 0.32562599
1.3496701 -0.65851098 0.189239
1.38748 -0.65851098 0.469363
1.48253 -0.65851098 0.257411
1.34711 -0.65851098 0.22148301
1.3032399 -0.65851098 0.30678299
1.3274 -0.65851098 0.434699
1.67261 -0.79330498 0.439953
1.80917 -0.79330498 0.34587601
1.60703 -0.65851098 0.28369799
1.6834199 -0.65851098 0.41047499
1.8544199 -0.65851098 0.52444798
1.47716 -0.65851098 0.261253
1.6407 -0.79330498 0.129641
1.6407 -0.79330498 0.129641
1.73383 -0.79330498 0.222804
1.50467 -0.79330498 0.084012799
1.6394399 -0.79330498 0.183256
1.53113 -0.65851098 0.494616
1.30951 -0.65851098 0.404984
1.33059 -0.79330498 0.18274499
1.69511 -0.65851098 0.29774299
1.7814 -0.65851098 0.26642501
1.38261 -0.65851098 0.272825
1.7433 -0.65851098 0.22058401
1.49117 -0.79330498 0.101429
1.7263499 -0.79330498 0.171777
1.59534 -0.65851098 0.44622099
1.4190201 -0.79330498 0.093929499
1.63104 -0.79330498 0.207395
1.77397 -0.79330498 0.48089999
1.71557 -0.79330498 0.15673
1.67443 -0.65851098 0.31975999
1.7732 -0.65851098 0.220529
1.59405 -0.79330498 0.20099699
1.3204499 -0.65851098 0.30079901
1.82233 -0.79330498 0.48820001
1.69996 -0.65851098 0.186372
1.78671 -0.79330498 0.423614
1.60571 -0.65851098 0.42789099
1.6502 -0.79330498 0.47031501
1.68512 -0.65851098 0.51939702
1.8152 -0.65851098 0.52562201
1.84261 -0.79330498 0.39401001
1.64938 -0.79330498 0.21469501
1.86172 -0.79330498 0.360338
1.52148 -0.65851098 0.18989199
1.67443 -0.65851098 0.31975999
1.86244 -0.79330498 0.31820199
1.78729 -0.65851098 0.246242
1.7889301 -0.65851098 0.35360301
1.2994601 -0.79330498 0.34728301
1.7036099 -0.79330498 0.31738001
1.69374 -0.79330498 0.25874799
1.4567699 -0.79330498 0.107933
1.4599 -0.65851098 0.25871199
1.32994 -0.79330498 0.329492
1.47059 -0.79330498 0.082837299
1.65184 -0.65851098 0.099703103
1.75308 -0.79330498 0.208878
1.71207 -0.79330498 0.320638
1.5847501 -0.65851098 0.49254099
1.29777 -0.79330498 0.27178001
1.77326 -0.65851098 0.27079901
1.30048 -0.79330498 0.42680001
1.58868 -0.79330498 0.180944
1.69502 -0.65851098 0.47613299
1.81172 -0.65851098 0.273294
1.77731 -0.65851098 0.36621201
1.56679 -0.79330498 0.21191899
1.68382 -0.79330498 0.51092798
2.54931 -0.79330498 0.37423101
2.5639801 -0.65851098 0.336155
2.58918 -0.65851098 0.32380599
2.42489 -0.79330498 0.402022
2.53386 -0.79330498 0.330437
2.5610099 -0.79330498 0.38063201
2.4307799 -0.79330498 0.34472999
2.4626701 -0.79330498 0.28726301
2.39273 -0.65851098 0.426736
2.6435699 -0.65851098 0.38553199
2.47771 -0.65851098 0.426806
2.6435699 -0.65851098 0.38553199
2.65887 -0.65851098 0.33864301
2.4286001 -0.79330498 0.403586
2.37923 -0.79330498 0.34638301
2.4490399 -0.79330498 0.31707501
2.33757 -0.79330498 0.36622301
2.4307799 -0.79330498 0.34472999
2.37923 -0.79330498 0.34638301
2.37923 -0.79330498 0.34638301
2.5905099 -0.65851098 0.35598099
2.67506 -0.65851098 0.403855
2.4329901 -0.79330498 0.40310901
2.46175 -0.79330498 0.31305999
2.60236 -0.65851098 0.41350901
2.64077 -0.79330498 0.356399
2.34484 -0.79330498 0.35621101
2.58918 -0.65851098 0.32380599
2.47416 -0.65851098 0.35416901
2.4160399 -0.65851098 0.39256999
2.5773799 -0.65851098 0.39537799
2.4651899 -0.65851098 0.34269699
2.36712 -0.65851098 0.369275
2.4537201 -0.79330498 0.29599899
2.3719001 -0.65851098 0.34353799
2.4337201 -0.65851098 0.36134401
2.61989 -0.79330498 0.350701
2.6203599 -0.65851098 0.32628
2.5706999 -0.65851098 0.431656
2.41434 -0.65851098 0.40656
2.3076401 -0.79330498 0.36049801
2.44842 -0.65851098 0.370554
2.37923 -0.79330498 0.34638301
2.32058 -0.79330498 0.342372
2.39573 -0.65851098 0.350701
2.66114 -0.65851098 0.32078701
2.37395 -0.79330498 0.36850801
2.58918 -0.65851098 0.32380599
2.63889 -0.79330498 0.36453101
2.51899 -0.79330498 0.39228901
2.5214701 -0.65851098 0.35331801
