# .PCD v0.7 - Point Cloud Data file format
VERSION 0.7
FIELDS x y z
SIZE 4 4 4
TYPE F F F
COUNT 1 1 1
WIDTH 1675
HEIGHT 1
VIEWPOINT 0 0 0 1 0 0 0
POINTS 1675
DATA ascii
-1.94862 0.41025999 0.39461499
-1.89827 0.58806002 0.42190999
-1.91978 0.66990697 0.42153001
-1.94863 0.61831701 0.36321199
-1.9150701 0.32711199 0.28765801
-1.73235 0.80737001 0.83478099
-1.7613699 0.791951 0.807576
-1.94662 0.641846 0.40475801
-1.72971 0.791951 0.584813
-1.88269 0.76754099 0.30139801
-1.87723 0.791951 0.68816698
-1.94863 0.35797501 0.351836
-1.8606 0.69299299 0.29784599
-1.90157 0.45763999 0.42190999
-1.93648 0.383737 0.28765801
-1.9095 0.770365 0.48183799
-1.88463 0.41139099 0.28765801
-1.9288599 0.332528 0.412177
-1.84688 0.67340797 0.42073101
-1.89739 0.85166401 0.70377398
-1.71772 0.54776198 0.42190999
-1.83119 0.327582 0.41675299
-1.9095 0.78501499 0.55961299
-1.8077101 0.84902799 0.78110099
-1.8647701 0.791951 0.51184201
-1.91044 0.38802299 0.27276599
-1.9095 0.80518699 0.73322898
-1.93288 0.53069198 0.41925201
-1.79619 0.83432198 0.78110099
-1.86396 0.77166498 0.86653697
-1.81129 0.348111 0.41478899
-1.94863 0.64874798 0.356976
-1.93642 0.53474897 0.284336
-1.93642 0.67186803 0.208773
-1.94863 0.63374001 0.32969999
-1.79419 0.791951 0.55030698
-1.91247 0.82969397 0.63908499
-1.94863 0.46275899 0.36995801
-1.94863 0.41360199 0.313907
-1.89981 0.65221298 0.27511099
-1.79055 0.63999403 0.42190999
-1.86967 0.84257799 0.683676
-1.92171 0.84756202 0.32875901
-1.86957 0.415941 0.28765801
-1.92564 0.69299299 0.373227
-1.87968 0.86617601 0.72599101
-1.94863 0.66374499 0.317065
-1.92171 0.83132797 0.42080799
-1.84244 0.65977597 0.42190999
-1.92171 0.82006699 0.3179
-1.90187 0.76754099 0.794649
-1.8970701 0.80737001 0.75663298
-1.92171 0.82110798 0.35669801
-1.80292 0.50666499 0.42190999
-1.7163301 0.791951 0.63762599
-1.86967 0.831586 0.66421902
-1.8959 0.76754099 0.78085798
-1.9071701 0.80737001 0.741274
-1.87975 0.77021402 0.65257603
-1.84637 0.62567002 0.28765801
-1.9153301 0.586146 0.28765801
-1.76923 0.380357 0.42190999
-1.89305 0.37553099 0.28765801
-1.84155 0.60907102 0.42190999
-1.82802 0.54209501 0.28765801
-1.94863 0.63355702 0.36658099
-1.90089 0.76754099 0.74462497
-1.88141 0.33905599 0.37087601
-1.8545001 0.60263997 0.28765801
-1.74042 0.86189699 0.78110099
-1.91619 0.461375 0.27276599
-1.93434 0.38685501 0.28765801
-1.94863 0.468707 0.36414999
-1.90425 0.82946402 0.67431098
-1.91508 0.33905599 0.32190499
-1.9188401 0.82559597 0.61172998
-1.92171 0.81487101 0.27468899
-1.90643 0.59204298 0.42190999
-1.74862 0.80737001 0.82498598
-1.9095 0.820189 0.32887501
-1.92716 0.56076401 0.28765801
-1.92171 0.809012 0.36867201
-1.80627 0.84894401 0.78110099
-1.8934 0.76754099 0.38837701
-1.8874201 0.436598 0.42190999
-1.7331899 0.49904901 0.42190999
-1.72867 0.53839302 0.42190999
-1.9095 0.78595698 0.49344
-1.93642 0.55958098 0.27491701
-1.73783 0.402325 0.42190999
-1.90117 0.76754099 0.4016
-1.87372 0.82052201 0.75152898
-1.9319 0.69299299 0.17518499
-1.9095 0.77133298 0.46959001
-1.7142 0.76754099 0.841057
-1.94863 0.55534798 0.29871401
-1.87975 0.772542 0.477844
-1.88586 0.82646298 0.59802997
-1.75219 0.444047 0.42190999
-1.81578 0.80737001 0.85534602
-1.8666 0.791951 0.45496699
-1.94863 0.421204 0.32264599
-1.89931 0.76754099 0.69369698
-1.87975 0.77165699 0.69361103
-1.9094599 0.469109 0.28765801
-1.75783 0.791951 0.77935302
-1.94863 0.456866 0.32664099
-1.91547 0.83415699 0.59942102
-1.91338 0.40426499 0.42190999
-1.7908 0.322153 0.41982001
-1.8094701 0.791951 0.76463503
-1.94863 0.32237399 0.312006
-1.8434401 0.33905599 0.32181701
-1.83548 0.44819301 0.42190999
-1.85812 0.791951 0.633322
-1.74447 0.33684501 0.405249
-1.80717 0.47864199 0.42190999
-1.8653899 0.69299299 0.31255001
-1.90811 0.76754099 0.378905
-1.9095 0.79192698 0.34312299
-1.73164 0.4522 0.42190999
-1.81677 0.80737001 0.854523
-1.83459 0.791951 0.827416
-1.8689801 0.791951 0.72556502
-1.94863 0.63355702 0.36658099
-1.9279 0.48530599 0.28765801
-1.87975 0.77288097 0.41220999
-1.88156 0.33616701 0.28765801
-1.91484 0.413881 0.28765801
-1.92169 0.666758 0.28765801
-1.7661901 0.791951 0.835949
-1.94862 0.41025999 0.39461499
-1.9055001 0.52960497 0.28765801
-1.80586 0.83200598 0.78110099
-1.88141 0.33905599 0.37087601
-1.78576 0.33918399 0.39647001
-1.7514499 0.791951 0.66176403
-1.81591 0.78804803 0.83678001
-1.91566 0.33905599 0.39288601
-1.84852 0.57750499 0.28765801
-1.92171 0.81350702 0.45770699
-1.71916 0.36118799 0.42133999
-1.93414 0.35499799 0.28765801
-1.8675801 0.80737001 0.859918
-1.9153399 0.38498899 0.28765801
-1.85427 0.68482602 0.41400999
-1.80874 0.562877 0.42190999
-1.8126301 0.86672598 0.78110099
-1.87975 0.78994602 0.42127499
-1.85487 0.37090701 0.42190999
-1.8327301 0.53760999 0.42190999
-1.76478 0.58631003 0.42190999
-1.87519 0.791951 0.65040898
-1.87975 0.78682399 0.42735499
-1.91725 0.56464499 0.28765801
-1.94863 0.34556401 0.35860801
-1.92171 0.81027198 0.440045
-1.94863 0.51354098 0.36804101
-1.94863 0.352299 0.36238801
-1.83013 0.791951 0.497841
-1.90274 0.68359703 0.415088
-1.88324 0.80737001 0.842592
-1.87975 0.778166 0.52244902
-1.89739 0.85166401 0.70377398
-1.92171 0.82308602 0.30795899
-1.79573 0.471288 0.42190999
-1.8874201 0.436598 0.42190999
-1.91179 0.51075602 0.27276599
-1.8961999 0.64358401 0.42190999
-1.94863 0.56198502 0.383681
-1.9095 0.770365 0.48183799
-1.85438 0.791951 0.70636302
-1.9095 0.77152199 0.540205
-1.91837 0.834948 0.61376202
-1.8250999 0.33905599 0.34225199
-1.74128 0.791951 0.77355301
-1.9096 0.486608 0.27276599
-1.93443 0.33905599 0.290694
-1.93642 0.67811602 0.24268501
-1.88981 0.69299299 0.37149301
-1.9104199 0.80737001 0.50393999
-1.85823 0.85422599 0.78110099
-1.89616 0.33777201 0.28765801
-1.9095 0.77081698 0.53683299
-1.92077 0.68887901 0.252924
-1.94627 0.69299299 0.38530999
-1.82212 0.33905599 0.39274701
-1.92873 0.458132 0.28765801
-1.86839 0.86796498 0.78110099
-1.86882 0.33905599 0.328347
-1.93214 0.436681 0.28765801
-1.8349299 0.791951 0.80774999
-1.7681299 0.791951 0.66864002
-1.94863 0.58306098 0.317031
-1.89859 0.80737001 0.66558301
-1.92214 0.309661 0.28765801
-1.7310899 0.791951 0.55284899
-1.8492 0.526169 0.42190999
-1.87222 0.50360399 0.28765801
-1.8345 0.69279999 0.39743999
-1.94863 0.60691899 0.38737899
-1.90361 0.595415 0.28765801
-1.8961999 0.64358401 0.42190999
-1.86066 0.69299299 0.36778599
-1.93642 0.55958098 0.27491701
-1.91284 0.45751899 0.28765801
-1.88151 0.76754099 0.64218199
-1.74784 0.791951 0.71862602
-1.94863 0.55709898 0.38508099
-1.9292099 0.49932399 0.28765801
-1.83857 0.34394199 0.41003001
-1.75696 0.791951 0.63899302
-1.82056 0.81380397 0.78110099
-1.89915 0.86663902 0.69621301
-1.87222 0.50360399 0.28765801
-1.71615 0.79890001 0.86653697
-1.85752 0.54127598 0.42190999
-1.86967 0.82447898 0.74008
-1.87644 0.86762398 0.59802997
-1.73313 0.791951 0.54615098
-1.92171 1.49081 0.40274599
-1.77959 1.635 0.78110099
-1.9095 1.73096 0.23951399
-1.7958699 1.4773099 0.78110099
-1.86999 1.43119 0.76756501
-1.9095 1.8256299 0.34348199
-1.9095 0.87309998 0.27070299
-1.85517 1.32718 0.78110099
-1.86967 1.3983001 0.736049
-1.77235 1.58055 0.78110099
-1.88354 1.03844 0.35393599
-1.92171 1.36728 0.362773
-1.88486 0.88737398 0.35393599
-1.91847 1.31023 0.60012001
-1.90876 1.19213 0.65499097
-1.72177 1.63416 0.78110099
-1.86967 1.29851 0.72609901
-1.92171 1.70295 0.312758
-1.89443 1.17382 0.71647
-1.92171 1.3565 0.56748998
-1.9095 1.84641 0.284814
-1.9095 0.94953001 0.30239299
-1.90886 1.0877301 0.59802997
-1.8322001 0.95457703 0.78110099
-1.83315 1.6854 0.78110099
-1.92171 1.44124 0.46622699
-1.89888 1.31064 0.64362401
-1.89254 1.33319 0.59802997
-1.86967 1.26371 0.766267
-1.86967 1.1278501 0.61412102
-1.86967 1.09849 0.693946
-1.8873301 1.10475 0.74692202
-1.80452 1.7209001 0.78110099
-1.7762001 1.48947 0.78110099
-1.92171 1.5941 0.503923
-1.89815 1.4069099 0.70049697
-1.92171 1.2622 0.53810799
-1.92171 1.38275 0.50011098
-1.86967 1.21603 0.77335399
-1.7144901 0.93988299 0.78110099
-1.92171 1.50274 0.50333101
-1.87238 1.74472 0.76952899
-1.9095 1.67423 0.26482099
-1.8825001 1.18636 0.76763397
-1.92171 1.65286 0.44342199
-1.9095 1.83936 0.273101
-1.92171 1.0429699 0.356637
-1.8987499 1.3462 0.69791001
-1.92171 1.66096 0.35968801
-1.90398 1.25693 0.62173402
-1.92171 1.0757999 0.402181
-1.92171 1.44629 0.398404
-1.9095 0.96701598 0.27943701
-1.88582 0.93474501 0.59802997
-1.86967 1.4859999 0.604303
-1.9095 1.3105201 0.33011401
-1.92171 1.36316 0.53993398
-1.92171 1.31007 0.57301599
-1.89082 1.21271 0.59802997
-1.92171 1.05444 0.46706399
-1.89482 0.92407 0.71479303
-1.89619 0.942792 0.70889002
-1.77609 0.89353597 0.78110099
-1.72297 1.7510999 0.78110099
-1.92171 1.04102 0.490347
-1.8224699 1.46828 0.78110099
-1.90134 1.29539 0.633048
-1.89169 0.969069 0.67444801
-1.92171 1.78158 0.244313
-1.82718 1.82605 0.35393599
-1.91664 0.97230399 0.62118602
-1.91231 1.3433501 0.63973403
-1.9155 1.5392801 0.62605101
-1.90537 1.22149 0.66951799
-1.7347 0.97180301 0.78110099
-1.92171 1.70101 0.294655
-1.86967 1.25008 0.64265299
-1.77913 0.88057798 0.35393599
-1.90844 1.46343 0.60259098
-1.88931 1.84674 0.35393599
-1.86967 1.0069 0.61844897
-1.7303801 1.74393 0.78110099
-1.8779 1.69775 0.73362601
-1.86967 1.62884 0.75607997
-1.86927 1.11913 0.35393599
-1.87927 1.48773 0.727745
-1.86967 1.28914 0.60305798
-1.86967 1.7290601 0.745574
-1.86967 1.0069 0.61844897
-1.87362 1.43651 0.75198901
-1.92171 1.65532 0.46654901
-1.92171 1.32844 0.320494
-1.8940099 0.87641001 0.664509
-1.92171 1.1467299 0.376995
-1.8832099 1.03497 0.35393599
-1.88427 1.29962 0.76006401
-1.8723201 1.37451 0.59802997
-1.87149 1.30532 0.76932102
-1.8994 1.48746 0.64135599
-1.9095 1.13778 0.30035099
-1.7787 1.56836 0.78110099
-1.8809 1.25109 0.77151501
-1.9095 1.6858701 0.246038
-1.8464299 1.2344199 0.35393599
-1.88478 1.11294 0.35393599
-1.9095 0.97333002 0.267212
-1.7559 1.79405 0.78110099
-1.89616 0.89471298 0.65528399
-1.91787 1.44719 0.61589199
-1.92171 1.3153 0.50899899
-1.72605 1.82129 0.78110099
-1.92047 0.91994798 0.60058802
-1.91769 1.03696 0.59802997
-1.8921601 0.88290203 0.726215
-1.87448 0.91513401 0.74827099
-1.86967 1.70858 0.75690401
-1.87621 1.03378 0.35393599
-1.86967 1.35639 0.71485698
-1.9095 0.87591702 0.27362299
-1.87449 1.32442 0.74823397
-1.92171 1.39548 0.583866
-1.92171 1.7169 0.47658801
-1.81042 1.63972 0.78110099
-1.86967 1.62418 0.62582701
-1.9095 1.26718 0.29488099
-1.90897 1.4371901 0.60031599
-1.92171 1.28063 0.584701
-1.86637 1.3251899 0.78110099
-1.9057 1.0026799 0.61433798
-1.92171 1.30558 0.42400101
-1.92171 1.14551 0.337928
-1.89122 1.1195199 0.73023599
-1.90984 1.2736599 0.59810901
-1.9069099 1.37537 0.60914201
-1.74105 1.4182301 0.78110099
-1.82116 0.989416 0.78110099
-1.88923 1.0209399 0.685018
-1.9084899 1.25972 0.65612
-1.86967 1.28513 0.74133998
-1.9069099 1.37537 0.60914201
-1.9095 0.96039301 0.24586201
-1.92171 0.88429099 0.43935099
-1.89263 1.59466 0.72415698
-1.86967 1.35254 0.64940602
-1.81801 1.16554 0.35393599
-1.75464 0.98917198 0.78110099
-1.88761 1.32718 0.69196898
-1.87679 1.68221 0.775455
-1.87379 0.98295099 0.59802997
-1.88441 0.90187699 0.75943398
-1.86967 0.89779502 0.69402301
-1.92171 1.2236 0.34231299
-1.7303801 1.74393 0.78110099
-1.92171 1.1375 0.55953699
-1.92171 1.57394 0.45955399
-1.92171 1.2506 0.429667
-1.83018 1.67839 0.78110099
-1.88837 1.22605 0.74244702
-1.86967 1.08372 0.65619898
-1.92171 1.26638 0.50457501
-1.90758 1.64934 0.60627502
-1.91887 1.4348201 0.61159599
-1.90702 0.90130502 0.662435
-1.92171 1.29732 0.332351
-1.92171 1.5605201 0.50931698
-1.92171 1.03562 0.41922501
-1.89386 1.5165401 0.66514498
-1.81267 1.35795 0.78110099
-1.92171 1.24252 0.303121
-1.85411 1.42085 0.78110099
-1.92171 1.49576 0.42634001
-1.91399 1.6195199 0.59907597
-1.92171 1.57707 0.56121898
-1.88562 1.55272 0.75426197
-1.78426 1.50304 0.78110099
-1.86967 1.1966799 0.69911498
-1.8041199 1.32648 0.35393599
-1.86967 0.93879902 0.72914499
-1.9095 0.91121 0.34219801
-1.80782 1.76125 0.78110099
-1.89206 1.03486 0.67287999
-1.75617 0.96405298 0.78110099
-1.86967 1.58231 0.727786
-1.86967 1.08956 0.78008902
-1.92171 1.07134 0.523287
-1.86967 1.07899 0.724419
-1.90193 0.97034597 0.63052601
-1.92171 1.70101 0.39315501
-1.9134901 1.18618 0.63468099
-1.85657 1.32318 0.78110099
-1.86967 1.06784 0.60903198
-1.92171 1.43039 0.407738
-1.86967 1.20531 0.68789601
-1.92171 0.94147998 0.33586401
-1.8756 0.98651898 0.77027899
-1.86967 0.92378002 0.63937902
-1.92171 1.06098 0.405588
-1.92171 1.57867 0.534136
-1.8997101 0.97264701 0.64003003
-1.88399 1.1519099 0.76124299
-1.92171 1.24252 0.303121
-1.91854 1.56635 0.59802997
-1.86219 1.52466 0.78110099
-1.76608 1.47549 0.35393599
-1.92171 1.20257 0.48868299
-1.86967 1.14899 0.60297799
-1.88781 0.95606202 0.69108403
-1.9051501 1.04461 0.61669099
-1.8953201 1.67553 0.712659
-1.92171 1.35639 0.418634
-1.92171 1.3974 0.56424201
-1.88369 0.902825 0.70879102
-1.92171 1.30845 0.46152401
-1.9095 1.61596 0.347561
-1.92059 1.33597 0.604222
-1.86967 1.09269 0.67361498
-1.86967 1.35096 0.754457
-1.92171 1.17708 0.315736
-1.87038 1.46498 0.78054303
-1.8878599 0.94096601 0.74464601
-1.89917 1.20924 0.64234501
-1.92171 1.71524 0.45870799
-1.9095 1.69577 0.33232301
-1.9131 0.87044901 0.59886801
-1.92171 1.69058 0.275594
-1.86927 1.11913 0.35393599
-1.90597 0.971443 0.35393599
-1.86967 1.37949 0.62153798
-1.86967 0.93756902 0.69589698
-1.9095 1.7252899 0.291832
-1.84436 1.65354 0.78110099
-1.8723 1.4782701 0.779015
-1.86967 1.33051 0.73302299
-1.72666 1.7241499 0.78110099
-1.91106 1.39292 0.64512199
-1.8943501 1.62378 0.66302502
-1.71942 1.7754 0.78110099
-1.87686 1.26047 0.73805398
-1.90643 1.1923 0.66497701
-1.86967 1.61075 0.61586702
-1.92171 1.1633 0.342435
-1.92171 1.63744 0.345424
-1.84322 1.00894 0.35393599
-1.92056 1.51587 0.60060799
-1.77788 1.37361 0.35393599
-1.84082 1.22363 0.35393599
-1.92171 1.65132 0.408225
-1.89189 1.11944 0.59802997
-1.86967 1.35254 0.64940602
-1.90518 0.89461601 0.67033798
-1.92171 1.1084501 0.55828398
-1.8873301 1.10475 0.74692202
-1.9118201 1.54995 0.59802997
-1.7317801 1.40011 0.35393599
-1.92171 1.7519 0.45063999
-1.89004 1.34806 0.35393599
-1.92171 1.81759 0.39837199
-1.88394 0.97863901 0.70770597
-1.89726 1.4445699 0.70431799
-1.85791 1.22414 0.35393599
-1.9095 1.77051 0.22063801
-1.92171 1.70786 0.48853201
-1.9095 1.73191 0.30533901
-1.89647 0.96156597 0.65395498
-1.87458 1.09345 0.74785602
-1.9095 0.93907499 0.32285699
-1.9095 1.84085 0.338514
-1.87449 1.74734 0.74823803
-1.87477 1.7267801 0.74702799
-1.8934 1.1982599 0.72088498
-1.88281 1.25643 0.35393599
-1.90527 1.4849 0.59802997
-1.89601 0.97459698 0.65590101
-1.92171 1.71524 0.45870799
-1.92171 1.73483 0.39250499
-1.92171 1.72425 0.49216199
-1.92171 1.81968 0.26909599
-1.74607 1.4742399 0.35393599
-1.90174 1.08155 0.68510902
-1.86967 1.70464 0.74159902
-1.86967 1.60726 0.71166402
-1.7838399 1.22252 0.35393599
-1.89209 1.42354 0.72650802
-1.74541 1.32139 0.35393599
-1.86967 1.71242 0.74945199
-1.9095 1.85288 0.22976699
-1.86967 1.13705 0.64374202
-1.86967 1.66682 0.68021101
-1.86967 1.47021 0.65952802
-1.89447 1.14323 0.66251898
-1.9095 0.87435001 0.27467099
-1.92171 0.89382899 0.211505
-1.89993 1.73963 0.35393599
-1.92171 1.76526 0.25528601
-1.92171 1.46266 0.56940699
-1.92171 1.54001 0.48697901
-1.8673 1.4437799 0.78110099
-1.9095 1.69434 0.34309301
-1.8811899 1.52358 0.719513
-1.92171 1.06679 0.40993199
-1.9095 1.7591701 0.32529399
-1.88612 1.36543 0.69833797
-1.92171 1.12772 0.36295599
-1.79087 1.38494 0.78110099
-1.86967 0.93636 0.617625
-1.8859 1.53819 0.75303501
-1.90047 0.92581302 0.69054502
-1.86967 1.22315 0.62616599
-1.8273 1.6670901 0.78110099
-1.9095 0.87095201 0.242414
-1.9095 1.20646 0.34251699
-1.89159 1.5079499 0.67489898
-1.86967 1.6225899 0.70941401
-1.91707 1.62081 0.619322
-1.87113 1.35856 0.76264399
-1.86967 1.07609 0.70662397
-1.92171 1.29606 0.38120601
-1.9128799 0.88990599 0.63730901
-1.86967 1.18363 0.71185303
-1.78853 1.56662 0.78110099
-1.8892 1.4449199 0.73891097
-1.9095 1.7889301 0.26854599
-1.86967 1.46639 0.60878599
-1.72059 0.87691802 0.35393599
-1.90301 1.10342 0.67964202
-1.88779 1.3708 0.74495
-1.8921601 0.88290203 0.726215
-1.71561 1.60702 0.78110099
-1.92171 1.23675 0.356639
-1.86967 1.41654 0.77805197
-1.92171 1.3621401 0.52634698
-1.86967 1.77214 0.77970397
-1.89302 0.95102602 0.722525
-1.90139 1.61831 0.686593
-1.87301 0.90904301 0.75460601
-1.72984 1.00816 0.78110099
-1.92171 1.2506 0.429667
-1.86967 1.63851 0.65237403
-1.92171 1.79775 0.33599299
-1.92171 1.20182 0.422389
-1.88471 1.60296 0.75817299
-1.9164701 0.992872 0.62191802
-1.92171 1.15027 0.39364401
-1.92171 1.69748 0.36763701
-1.74167 1.75225 0.78110099
-1.8986 1.43885 0.69858301
-1.87376 1.61482 0.751369
-1.92171 1.50623 0.59755498
-1.90939 1.59322 0.59851497
-1.91891 1.3270299 0.61142302
-1.92171 1.31646 0.54084802
-1.92171 1.13252 0.54964101
-1.89976 0.918917 0.69357699
-1.82189 0.93529701 0.78110099
-1.89976 1.40677 0.63982898
-1.92171 1.22711 0.299528
-1.85508 1.2728699 0.35393599
-1.86967 1.5997 0.75956899
-1.89872 0.92583001 0.64427799
-1.92171 1.47218 0.491891
-1.87725 1.12261 0.73641098
-1.86967 1.60484 0.665093
-1.87175 1.40207 0.59802997
-1.86967 1.50982 0.75406301
-1.89619 0.942792 0.70889002
-1.92171 0.99862802 0.50979102
-1.92171 1.50644 0.41841999
-1.8913701 1.0881 0.72956598
-1.77382 1.83629 0.35393599
-1.88459 0.87015897 0.70490903
-1.89335 1.1490999 0.59802997
-1.86967 1.03863 0.64438999
-1.87757 1.03423 0.735035
-1.9184 1.32851 0.61362702
-1.89398 0.937998 0.66463602
-1.90354 1.45065 0.677356
-1.74955 1.59435 0.78110099
-1.88201 0.96757299 0.715985
-1.86967 1.1702501 0.70479298
-1.92171 1.07441 0.47297201
-1.82496 1.67913 0.78110099
-1.88098 1.33249 0.59802997
-1.92171 0.93325597 0.48583999
-1.89232 1.5975 0.59802997
-1.92171 1.21995 0.56286699
-1.86967 1.20517 0.65215498
-1.86967 1.20274 0.63556898
-1.76608 1.47549 0.35393599
-1.92171 1.61614 0.38499799
-1.77903 1.03915 0.78110099
-1.8981 0.98382699 0.70072299
-1.86967 1.08786 0.75681502
-1.92171 0.96535599 0.252049
-1.92155 0.930695 0.599365
-1.81572 1.65233 0.78110099
-1.87738 1.01735 0.73585701
-1.86967 1.40865 0.74087799
-1.89209 1.43988 0.67273301
-1.89205 1.08232 0.72665203
-1.92171 1.0089999 0.57245201
-1.8767999 1.16157 0.73832297
-1.8421299 1.09663 0.35393599
-1.92171 1.66703 0.42175299
-1.91511 1.60833 0.59933698
-1.92171 1.525 0.45568499
-1.92171 1.49054 0.43143299
-1.92171 1.74349 0.495453
-1.92171 0.874663 0.53064501
-1.9095 0.90227699 0.25251001
-1.91342 1.1660399 0.63497502
-1.92171 1.2579499 0.37361801
-1.71789 0.94578803 0.78110099
-1.92171 1.7519 0.45063999
-1.9095 0.91197801 0.27726901
-1.86967 1.11948 0.64757198
-1.92171 1.16478 0.42023101
-1.92171 1.74485 0.28379399
-1.9095 1.27073 0.35312599
-1.92171 1.66676 0.52292103
-1.92171 1.34539 0.56938303
-1.88757 1.38379 0.74588799
-1.90193 0.97034597 0.63052601
-1.86967 1.38371 0.70876998
-1.86967 1.32522 0.655586
-1.86967 1.6445301 0.71974802
-1.86967 1.43918 0.60916603
-1.92171 1.6332901 0.469962
-1.92057 1.60084 0.60061097
-1.8996 1.34358 0.35393599
-1.92171 1.4630001 0.50862402
-1.92171 1.10329 0.507294
-1.9179699 1.2315 0.61545599
-1.8861901 1.12559 0.59802997
-1.89342 1.2506599 0.35393599
-1.91851 1.27856 0.61313599
-1.89361 0.96845198 0.719989
-1.92171 1.51459 0.49188799
-1.81822 1.13608 0.35393599
-1.91956 0.970173 0.60864598
-1.92171 1.6739399 0.385245
-1.80782 1.76125 0.78110099
-1.92171 1.3883801 0.48596999
-1.9095 1.33094 0.330818
-1.86967 1.09243 0.68802202
-1.8732001 1.4633 0.76972002
-1.86967 1.25534 0.76365501
-1.92171 0.88494301 0.305529
-1.89626 1.68762 0.35393599
-1.92171 1.72719 0.416226
-1.86967 1.37568 0.663513
-1.77649 1.46674 0.35393599
-1.90917 1.04816 0.59802997
-1.86967 1.31084 0.60954899
-1.92171 0.97607797 0.27623001
-1.92171 1.50623 0.59755498
-1.92171 1.6949 0.490316
-1.92171 1.46266 0.56940699
-1.92171 1.2455601 0.458312
-1.8837301 1.37819 0.70859599
-1.86967 1.21574 0.60683298
-1.75734 1.56512 0.78110099
-1.9015 1.2076 0.68612599
-1.9095 1.82807 0.20989101
-1.88709 0.989528 0.74792397
-1.88318 1.43738 0.71098298
-1.86967 1.7465 0.77871501
-1.8370399 1.29893 0.35393599
-1.91135 1.11163 0.643852
-1.86967 1.43575 0.73877698
-1.88529 0.88217503 0.59802997
-1.88188 1.09395 0.71653098
-1.86967 0.92043298 0.63137197
-1.90605 1.42532 0.612845
-1.89669 1.43146 0.653
-1.92171 1.71307 0.31786099
-1.86967 1.12571 0.66995102
-1.86967 1.19383 0.740969
-1.86967 1.50579 0.65271598
-1.92171 1.50861 0.54931402
-1.9095 0.88935298 0.34400001
-1.89252 1.28373 0.67087799
-1.86967 1.34567 0.65649003
-1.86967 1.52116 0.61633998
-1.86967 1.09849 0.693946
-1.88986 1.49727 0.68230802
-1.85685 1.64797 0.35393599
-1.86967 1.26862 0.60185403
-1.92171 1.25133 0.447272
-1.88156 1.25583 0.71789402
-1.87986 1.76564 0.77301902
-1.92171 0.92235702 0.342785
-1.90325 1.7329299 0.35393599
-1.8756 0.98651898 0.77027899
-1.86967 0.91865802 0.76280802
-1.87424 1.05422 0.74932599
-1.84789 1.74701 0.78110099
-1.92171 1.31275 0.31607699
-1.92171 1.41618 0.451933
-1.80553 0.91982198 0.78110099
-1.92171 1.31275 0.31607699
-1.88475 1.4915299 0.70420998
-1.92171 1.46787 0.43425
-1.8968101 1.74317 0.35393599
-1.9125201 1.03162 0.63885099
-1.86967 0.98126298 0.77171999
-1.89209 1.43988 0.67273301
-1.90846 1.62414 0.65625203
-1.9095 1.78177 0.333022
-1.8293999 1.0686001 0.35393599
-1.83375 1.09304 0.78110099
-1.86967 1.5499001 0.74909502
-1.88995 1.1163 0.68193299
-1.92171 0.88773602 0.58739799
-1.9095 1.76221 0.29931599
-1.72006 0.87735498 0.35393599
-1.92171 1.70295 0.312758
-1.7327 1.41908 0.78110099
-1.92171 1.42071 0.408052
-1.92171 1.36703 0.468119
-1.92171 1.38967 0.55027401
-1.92171 0.913239 0.43701401
-1.74607 1.4742399 0.35393599
-1.89872 0.92583001 0.64427799
-1.91062 0.95516801 0.64700401
-1.829 0.87650698 0.35393599
-1.92171 1.785 0.246565
-1.89827 1.1515 0.69998801
-1.76775 0.88163102 0.78110099
-1.8881299 1.11621 0.68974203
-1.86967 0.87694299 0.608491
-1.92171 1.38816 0.49844801
-1.92171 1.07594 0.55734801
-1.87637 1.42182 0.74018598
-1.84741 1.19622 0.35393599
-1.92171 1.21216 0.47164601
-1.92171 1.6831 0.291453
-1.92171 1.38214 0.411428
-1.83015 1.15816 0.78110099
-1.86967 1.42058 0.704853
-1.92171 1.28882 0.25738901
-1.92171 1.57093 0.495747
-1.90518 0.89461601 0.67033798
-1.92171 1.57707 0.56121898
-1.81576 1.44224 0.78110099
-1.82849 1.5947 0.78110099
-1.92171 1.44182 0.450234
-1.82849 1.5947 0.78110099
-1.8118 1.21638 0.35393599
-1.86967 1.64097 0.72910601
-1.92171 1.32504 0.57353002
-1.92171 1.19924 0.50120598
-1.92171 0.96175301 0.567707
-1.89572 1.1780699 0.710913
-1.92171 0.975986 0.50999802
-1.84644 1.16151 0.35393599
-1.86967 1.64621 0.67159599
-1.9153399 1.63052 0.62676197
-1.90852 1.1288 0.59802997
-1.83796 1.19467 0.35393599
-1.86875 1.07154 0.35393599
-1.92171 1.00674 0.56036901
-1.92171 1.80458 0.35993099
-1.86967 1.3419 0.65472001
-1.86967 1.29635 0.627716
-1.86967 1.01586 0.626077
-1.89742 1.34012 0.70360798
-1.89159 1.5079499 0.67489898
-1.92171 1.81433 0.247352
-1.91844 1.16052 0.59802997
-1.88108 1.00875 0.77155602
-1.89412 1.21962 0.71778798
-1.89781 1.56057 0.701958
-1.8997999 1.2186199 0.69342703
-1.86967 1.68703 0.740803
-1.9079601 1.09474 0.60464799
-1.86967 1.1329401 0.688241
-1.92171 1.80563 0.344863
-1.92171 1.53672 0.50205302
-1.9095 0.96805501 0.277569
-1.92171 0.95757002 0.50814599
-1.92171 1.74615 0.27610201
-1.92171 1.27913 0.59546101
-1.92171 0.95921803 0.42740199
-1.83029 1.26297 0.78110099
-1.89896 1.66695 0.69702399
-1.88922 1.2719001 0.35393599
-1.71444 0.93611997 0.78110099
-1.89466 1.66026 0.66172898
-1.92171 1.51353 0.59047598
-1.88042 1.08417 0.35393599
-1.92171 1.38794 0.530545
-1.92171 0.96903598 0.29963401
-1.9095 1.63682 0.34562099
-1.75653 1.77377 0.78110099
-1.87911 1.2006201 0.72842699
-1.76713 0.87158298 0.78110099
-1.92171 1.6678801 0.461348
-1.80322 0.96158803 0.78110099
-1.9095 0.889642 0.21495
-1.88899 1.52535 0.73980403
-1.8952301 1.49338 0.71302998
-1.92171 1.2268699 0.53478301
-1.90165 1.0839 0.63172001
-1.92171 1.09498 0.355483
-1.92171 1.00552 0.406901
-1.9035 1.61645 0.677535
-1.8851 1.26302 0.756473
-1.8991899 1.6518199 0.64229101
-1.90856 1.0878299 0.60207802
-1.9095 0.99694997 0.28129399
-1.90569 1.25694 0.66813099
-1.86967 0.895863 0.74829501
-1.89413 1.63377 0.35393599
-1.78597 1.24676 0.35393599
-1.90844 1.4794101 0.65634799
-1.9022501 1.45359 0.59802997
-1.91794 0.94722402 0.61559999
-1.92171 1.0381401 0.59220898
-1.92171 0.997379 0.34832001
-1.92053 1.4682 0.60447401
-1.85834 1.81016 0.35393599
-1.7560199 1.39442 0.35393599
-1.86967 1.73927 0.761608
-1.86967 1.17307 0.615861
-1.86967 1.36882 0.748362
-1.86967 1.2084399 0.68325502
-1.76815 1.28161 0.35393599
-1.89598 1.02991 0.70981598
-1.82731 1.35147 0.35393599
-1.8820601 1.25524 0.59802997
-1.92171 1.78482 0.33554199
-1.86967 1.73674 0.75275201
-1.91888 1.18014 0.61158597
-1.86967 0.97110897 0.680951
-1.92171 1.64763 0.55767798
-1.89476 1.28878 0.66129303
-1.72078 1.54724 0.78110099
-1.87379 0.98295099 0.59802997
-1.92171 1.59144 0.51271898
-1.92171 1.1762 0.51090002
-1.87316 1.097 0.75395799
-1.87435 1.1331199 0.77739102
-1.8221999 1.38088 0.35393599
-1.80477 1.4599299 0.78110099
-1.9095 0.93270898 0.27111799
-1.86967 1.65382 0.653804
-1.91002 1.29958 0.64955598
-1.87429 1.08836 0.76997399
-1.91825 0.95316303 0.59802997
-1.9095 1.73191 0.30533901
-1.92171 1.13261 0.368734
-1.86967 1.5271 0.70768201
-1.89838 1.64484 0.64573902
-1.92171 1.64809 0.58585602
-1.92171 1.5708801 0.42735401
-1.81731 1.43388 0.78110099
-1.81999 1.83706 0.35393599
-1.86967 1.44821 0.742805
-1.86967 1.30779 0.67630202
-1.87947 1.71096 0.72686601
-1.92171 1.4714299 0.54393703
-1.86967 1.67361 0.73368299
-1.80521 1.4554 0.78110099
-1.86064 1.23352 0.78110099
-1.87983 1.21331 0.72533602
-1.7879601 1.25916 0.35393599
-1.90431 1.32607 0.67404997
-1.89425 1.4046 0.71723598
-1.8851 0.87415898 0.75649798
-1.88468 1.57025 0.704521
-1.90865 1.3273799 0.60170197
-1.83965 1.16931 0.35393599
-1.86967 0.93903702 0.71535498
-1.79337 1.0128599 0.78110099
-1.86967 1.2622401 0.681741
-1.8987499 1.3462 0.69791001
-1.92171 1.64169 0.470487
-1.87894 0.90571803 0.72916198
-1.92171 1.18045 0.54239202
-1.91276 1.0691 0.63780999
-1.86967 1.13406 0.633246
-1.9095 1.7368701 0.30640501
-1.86967 1.43978 0.778018
-1.92171 1.53794 0.55393398
-1.92171 1.49586 0.45725399
-1.92171 1.70113 0.47159001
-1.92171 1.13261 0.368734
-1.8967299 0.87321401 0.65283602
-1.80384 1.40257 0.35393599
-1.9095 0.94008702 0.307019
-1.87702 0.87079197 0.59802997
-1.86967 1.47814 0.60228401
-1.83759 1.31232 0.78110099
-1.92076 1.3406301 0.60065401
-1.92171 1.39548 0.583866
-1.9095 0.97186899 0.31705099
-1.92171 1.13929 0.46418801
-1.86967 1.65426 0.63034898
-1.92171 0.91772199 0.28506401
-1.88184 1.05317 0.71671301
-1.86335 1.16317 0.78110099
-1.86967 1.08505 0.65492898
-1.92171 1.74615 0.27610201
-1.92171 0.88494301 0.305529
-1.9095 1.74839 0.213641
-1.81094 1.77293 0.78110099
-1.92171 1.48808 0.43253201
-1.84331 1.00077 0.78110099
-1.77788 1.37361 0.35393599
-1.92171 1.82243 0.25289899
-1.89847 1.02477 0.69913203
-1.85037 1.58841 0.35393599
-1.92047 0.91994798 0.60058802
-1.90439 1.22571 0.67374599
-1.9095 0.93633199 0.25011301
-1.92171 1.45116 0.58188099
-1.7460001 1.6307499 0.78110099
-1.9095 1.26718 0.29488099
-1.88569 1.79015 0.35393599
-1.86967 1.30779 0.67630202
-1.92171 1.4585201 0.41206601
-1.90213 0.99448299 0.62967902
-1.7999001 1.39378 0.35393599
-1.92171 1.36703 0.468119
-1.91583 1.81873 0.20748
-1.91583 1.81873 0.20748
-1.92171 1.4585201 0.54175901
-1.89613 1.12133 0.59802997
-1.90865 1.34762 0.601695
-1.79635 1.3748699 0.35393599
-1.81001 1.38794 0.78110099
-1.9095 0.89577597 0.336225
-1.92171 1.39305 0.54224497
-1.92171 1.18453 0.57949102
-1.86967 1.03025 0.74846298
-1.87405 1.40477 0.76991898
-1.8865 0.89810902 0.750471
-1.90323 1.39882 0.67872
-1.88822 1.3910201 0.68935901
-1.9119 1.28219 0.64150202
-1.92171 0.891891 0.59099001
-1.86151 1.4145499 0.78110099
-1.86967 1.70327 0.734115
-1.92171 0.94616801 0.48395801
-1.91006 1.12519 0.64938903
-1.92171 1.77836 0.233459
-1.90124 1.39316 0.633479
-1.83191 0.93885702 0.35393599
-1.92171 1.44999 0.521438
-1.9155 1.16751 0.599428
-1.89724 1.13574 0.70440501
-1.90095 1.09654 0.59802997
-1.92171 1.2934 0.41563901
-1.91204 1.41054 0.64089799
-1.92171 1.63651 0.47890201
-1.87764 1.30784 0.73474902
-1.86967 1.07444 0.64093399
-1.84193 1.32011 0.35393599
-1.90346 1.22971 0.67770302
-1.9014 1.28082 0.35393599
-1.89066 1.19682 0.67888498
-1.92171 0.94162703 0.39572901
-1.92171 1.78482 0.33554199
-1.86967 1.01478 0.68698502
-1.90757 0.89579499 0.66009003
-1.75796 0.99704897 0.78110099
-1.92171 1.3844301 0.41371599
-1.92171 0.952245 0.579467
-1.90955 1.8160501 0.20748
-1.9095 0.95301598 0.302472
-1.92171 1.25234 0.59699303
-1.90367 1.28398 0.67681098
-1.92171 1.65093 0.565593
-1.91434 0.886558 0.63102502
-1.92171 1.59738 0.368799
-1.87793 1.45499 0.77455002
-1.90158 1.13065 0.63201302
-1.92171 1.32061 0.55428898
-1.87308 1.4432499 0.59802997
-1.88902 1.45302 0.68592203
-1.9095 1.67661 0.298325
-1.92171 1.79963 0.34742999
-1.87213 1.39141 0.75836301
-1.92171 1.66369 0.36149001
-1.9095 1.8206199 0.31485799
-1.9135799 1.50343 0.59802997
-1.86967 0.99421799 0.60766101
-1.92171 1.48903 0.56939399
-1.92171 1.2236 0.34231299
-1.89881 1.31162 0.64391601
-1.9184 1.32851 0.61362702
-1.89934 1.2589099 0.64165199
-1.92171 0.96535599 0.252049
-1.92171 0.99862802 0.50979102
-1.90193 0.97034597 0.63052601
-1.86967 1.28286 0.672185
-1.8978699 1.47799 0.64792699
-1.87595 1.22109 0.74199897
-1.89024 1.12874 0.59802997
-1.85373 1.50445 0.78110099
-1.86967 1.65151 0.72500801
-1.88442 1.30224 0.75937903
-1.92171 1.06898 0.325764
-1.9095 0.94008702 0.307019
-1.92171 1.82442 0.40142301
-1.7974 1.50647 0.35393599
-1.9086699 1.23615 0.65538001
-1.89624 1.27456 0.59802997
-1.92171 1.12672 0.501486
-1.86967 1.43575 0.73877698
-1.92171 1.49299 0.49992999
-1.89879 1.22736 0.69774801
-1.86967 1.22282 0.710186
-1.92171 0.93228102 0.31387201
-1.92171 1.13723 0.36372399
-1.92171 1.67224 0.38854301
-1.86967 1.69978 0.74643201
-1.89336 1.32444 0.66728401
-1.92171 0.97904199 0.46996599
-1.92171 1.64657 0.55046999
-1.92171 1.17205 0.36016399
-1.88537 1.66055 0.75534099
-1.9095 0.98062199 0.34562701
-1.77201 1.7078201 0.78110099
-1.92105 1.5556999 0.60225999
-1.92171 1.1762 0.51090002
-1.92171 1.5296201 0.42211401
-1.8825999 1.27669 0.71343499
-1.86967 1.5428801 0.70992398
-1.8851399 1.6583 0.75629401
-1.92171 1.21655 0.56343597
-1.8637 1.42495 0.78110099
-1.86967 1.49639 0.78087503
-1.92171 0.91831499 0.57237297
-1.77387 0.87058699 0.35393599
-1.92171 1.65086 0.50762701
-1.88923 1.0209399 0.685018
-1.87884 1.10588 0.59802997
-1.89993 1.73963 0.35393599
-1.75464 0.98917198 0.78110099
-1.92171 1.0757999 0.402181
-1.88498 1.4789799 0.75698298
-1.9095 1.10388 0.345292
-1.73386 1.57319 0.78110099
-1.92171 1.34786 0.469266
-1.86967 1.28361 0.70079702
-1.92171 1.81968 0.26909599
-1.89376 0.92353898 0.71933597
-1.92171 1.60891 0.558442
-1.92171 1.2622 0.53810799
-1.8888 0.94768602 0.68683499
-1.92171 1.71307 0.31786099
-1.92171 1.23094 0.438447
-1.8859 1.02036 0.69930899
-1.92171 1.13446 0.426532
-1.80431 1.49606 0.78110099
-1.86967 1.25053 0.60812199
-1.76703 1.22949 0.35393599
-1.90418 1.3671 0.62088299
-1.92171 0.95937598 0.27390301
-1.92171 1.0937001 0.46424699
-1.92171 0.89693099 0.450178
-1.9125201 1.03162 0.63885099
-1.89492 1.1974601 0.59802997
-1.74455 1.5943201 0.78110099
-1.92171 1.2004499 0.429079
-1.9095 0.92074198 0.218454
-1.90338 1.65636 0.35393599
-1.86999 1.43119 0.76756501
-1.88922 1.2719001 0.35393599
-1.86967 1.2266001 0.74761897
-1.90109 1.0010099 0.68789101
-1.86967 1.73927 0.761608
-1.92171 1.08524 0.35761601
-1.92171 1.53411 0.59662002
-1.91002 1.30645 0.64957303
-1.8305399 1.28385 0.78110099
-1.92171 1.2022901 0.56491101
-1.86967 1.21603 0.77335399
-1.92171 1.1789 0.40416399
-1.88015 1.4493999 0.72394401
-1.92171 1.22247 0.35107201
-1.9095 1.67421 0.32555199
-1.92171 1.1432199 0.46806401
-1.92171 0.95624202 0.580203
-1.9095 1.7591701 0.32529399
-1.86967 1.51054 0.72945499
-1.92171 1.8449399 0.229948
-1.8968101 1.47902 0.70624501
-1.77746 1.04816 0.78110099
-1.92171 1.30338 0.44471601
-1.86967 1.00223 0.636711
-1.92171 1.05773 0.51831198
-1.86967 0.91034198 0.62305099
-1.81094 1.77293 0.78110099
-1.86967 1.50073 0.68449998
-1.9095 1.72816 0.30769899
-1.90431 1.21144 0.62029803
-1.86967 1.41485 0.65371299
-1.86967 1.65236 0.73758602
-1.86967 1.2476701 0.70473802
-1.92171 1.74174 0.237795
-1.86967 1.5685 0.74076498
-1.92171 1.71524 0.45870799
-1.8869801 0.88906902 0.69466698
-1.86967 1.2862099 0.743581
-1.86967 1.3075401 0.63214999
-1.87112 1.70973 0.77995598
-1.84331 1.00077 0.78110099
-1.9095 0.94139397 0.28985599
-1.8975101 1.21421 0.649481
-1.92171 1.17708 0.315736
-1.92171 1.19924 0.50120598
-1.9095 1.31835 0.31457499
-1.89572 1.00229 0.71093798
-1.9060301 1.41501 0.59802997
-1.92171 1.67518 0.31207299
-1.87983 1.21331 0.72533602
-1.9046201 1.42168 0.67274398
-1.89984 1.6133699 0.35393599
-1.85807 1.03488 0.35393599
-1.92171 1.38214 0.411428
-1.76386 1.83303 0.35393599
-1.91002 1.30645 0.64957303
-1.92171 1.0757999 0.402181
-1.89247 1.77765 0.35393599
-1.89554 1.25041 0.657956
-1.8464299 1.2344199 0.35393599
-1.92171 1.64657 0.55046999
-1.92171 1.71184 0.47527501
-1.92171 1.76638 0.26895601
-1.88923 1.0209399 0.685018
-1.90035 1.31613 0.637312
-1.90237 1.01322 0.35393599
-1.92171 1.40737 0.38386101
-1.82256 1.26543 0.35393599
-1.90763 1.26762 0.65982002
-1.84762 1.34857 0.35393599
-1.90301 1.10342 0.67964202
-1.86967 0.97983998 0.67213601
-1.90844 1.46343 0.60259098
-1.92171 1.3551199 0.44457799
-1.9095 0.93270898 0.27111799
-1.9181 1.34505 0.61489302
-1.8732001 1.4633 0.76972002
-1.88342 1.3303 0.76369202
-1.72221 1.3939 0.78110099
-1.86967 0.95450503 0.67840397
-1.8508101 1.55134 0.78110099
-1.92171 0.92235702 0.342785
-1.91256 1.1850899 0.63866103
-1.92171 0.89382899 0.211505
-1.89481 1.49459 0.59802997
-1.86967 1.65236 0.73758602
-1.86967 1.1366 0.77906698
-1.86967 0.99340397 0.65385199
-1.89548 1.08919 0.71196002
-1.78807 0.96416003 0.78110099
-1.8803101 0.88345402 0.77137601
-1.92171 1.68998 0.42151001
-1.80738 1.1804399 0.35393599
-1.88178 1.44269 0.71696401
-1.9181 1.34505 0.61489302
-1.78564 1.5296299 0.78110099
-1.91032 1.10487 0.64828002
-1.92171 1.57394 0.45955399
-1.8995399 1.10893 0.64078999
-1.9074399 1.5575401 0.66064101
-1.92171 1.3153 0.50899899
-1.82454 1.2911299 0.35393599
-1.87802 1.31613 0.73311102
-1.87904 1.79024 0.35393599
-1.8932 1.33701 0.35393599
-1.86967 1.22294 0.69069499
-1.78702 1.36002 0.78110099
-1.88762 1.41915 0.59802997
-1.92171 1.70542 0.251632
-1.86967 1.54921 0.64635998
-1.77977 1.78857 0.78110099
-1.8844301 1.66242 0.35393599
-1.86967 1.42249 0.63054597
-1.9172601 1.39449 0.59983802
-1.8991899 1.2138799 0.696055
-1.74303 1.42695 0.78110099
-1.8924299 1.2274801 0.67129898
-1.86967 1.54921 0.64635998
-1.86967 0.952986 0.72778201
-1.88253 1.11558 0.71376801
-1.91667 1.1472501 0.62106001
-1.9095 1.69004 0.211932
-1.92171 1.70521 0.29321399
-1.86967 1.3427 0.67535901
-1.92171 1.64809 0.58585602
-1.86967 1.30966 0.635028
-1.92171 1.50644 0.41841999
-1.83403 1.32724 0.35393599
-1.86967 0.91358697 0.73695898
-1.8604 1.71723 0.78110099
-1.92171 1.6651 0.43906799
-1.74032 1.44139 0.35393599
-1.9095 0.92012298 0.30041301
-1.89631 0.87426102 0.59802997
-1.88513 1.67909 0.75635397
-1.92171 1.2455601 0.458312
-1.76386 1.83303 0.35393599
-1.86967 1.25736 0.67127502
-1.92171 1.3272901 0.472215
-1.92171 1.1276 0.40159601
-1.86967 1.0242701 0.62811702
-1.92171 1.17246 0.588781
-1.86007 1.13951 0.35393599
-1.92171 1.56264 0.52133697
-1.87002 1.48079 0.78082299
-1.92171 1.65257 0.37079701
-1.87449 1.32442 0.74823397
-1.89929 0.93126398 0.69560403
-1.86699 1.3102601 0.35393599
-1.9095 1.7762001 0.35205999
-1.92171 1.3588099 0.55297101
-1.92171 0.90782702 0.48098201
-1.89191 1.63394 0.727247
-1.9028701 1.26907 0.62650901
-1.91134 1.24353 0.64390302
-1.9095 1.30111 0.34051901
-1.92171 0.95485097 0.48615599
-1.87939 1.32321 0.77339202
-1.89377 1.28706 0.71927798
-1.91729 1.4442101 0.59802997
-1.89518 1.5420001 0.713247
-1.92171 1.72428 0.43873399
-1.92171 1.60359 0.55388898
-1.86967 1.19558 0.72401297
-1.92171 1.77227 0.209016
-1.92171 1.31753 0.430554
-1.92171 1.29732 0.332351
-1.829 0.87650698 0.35393599
-1.92171 1.6949 0.490316
-1.9095 0.90227699 0.25251001
-1.83506 1.84834 0.35393599
-1.86308 0.97848201 0.78110099
-1.9095 0.95620501 0.29035699
-1.92171 1.7358201 0.469971
-1.86967 1.0734299 0.60337102
-1.87149 1.30532 0.76932102
-1.88875 1.2581 0.68707401
-1.9095 1.14648 0.330239
-1.86967 1.08927 0.76966
-1.92171 1.55555 0.48480901
-1.86967 1.03929 0.61220098
-1.90184 1.02101 0.63091701
-1.87696 1.44423 0.77531898
-1.86967 1.01529 0.771474
-1.86967 1.33051 0.73302299
-1.92171 1.29237 0.50518698
-1.92171 1.34501 0.54312199
-1.89525 0.95838398 0.71294999
-1.92171 1.33927 0.35584599
-1.92171 1.3507299 0.56550097
-1.84014 1.151 0.78110099
-1.90894 1.31639 0.65422702
-1.87278 1.23829 0.75558001
-1.92171 1.15194 0.40154901
-1.92171 1.1428 0.491947
-1.77909 1.74787 0.78110099
-1.9095 1.84948 0.210556
-1.92171 1.06336 0.59363002
-1.85037 1.58841 0.35393599
-1.89127 1.05449 0.67624098
-1.88281 1.25643 0.35393599
-1.86967 1.49719 0.75314599
-1.90018 1.39963 0.69180501
-1.89714 1.05028 0.70484501
-1.9095 1.16347 0.32945299
-1.92171 1.15184 0.36198199
-1.90071 1.1267999 0.635768
-1.76922 1.48856 0.35393599
-1.92171 1.6311899 0.41935399
-1.9095 1.26785 0.35082299
-1.9095 1.80654 0.25100401
-1.78386 1.49111 0.78110099
-1.89946 1.26562 0.64113098
-1.9095 1.84085 0.338514
-1.8727 1.02224 0.75592101
-1.84588 1.42598 0.78110099
-1.92171 1.32578 0.375121
-1.9095 1.84179 0.20834699
-1.90706 1.1748 0.60852402
-1.80182 1.39115 0.78110099
-1.85751 1.7307301 0.35393599
-1.92171 0.975986 0.50999802
-1.86967 1.48002 0.74555099
-1.86001 1.5282201 0.78110099
-1.86967 1.25237 0.66121101
-1.81209 1.5103101 0.78110099
-1.92171 1.62383 0.51855201
-1.88589 1.66442 0.69931799
-1.92171 1.52213 0.51831198
-1.92171 0.92359602 0.299171
-1.86967 1.0600801 0.74756902
-1.88451 0.93180698 0.59802997
-1.90569 1.25694 0.66813099
-1.72229 1.79583 0.78110099
-1.87413 1.0056601 0.74980599
-1.92171 1.20182 0.422389
-1.9095 1.8206199 0.31485799
-1.9095 1.73191 0.30533901
-1.74032 1.44139 0.35393599
-1.92171 1.51261 0.55839097
-1.86967 1.3825001 0.60983902
-1.92171 1.7062401 0.40688899
-1.90763 1.26762 0.65982002
-1.90343 1.16395 0.67782497
-1.92171 0.87281102 0.27788299
-1.86967 1.6273201 0.76253802
-1.78818 1.4071701 0.78110099
-1.8791699 1.58764 0.77356201
-1.8967299 0.87321401 0.65283602
-1.89626 1.68762 0.35393599
-1.91032 0.92493498 0.59802997
-1.92171 1.35639 0.418634
-1.86967 1.0565701 0.73303503
-1.90026 0.91399002 0.69144601
-1.8219 1.08838 0.78110099
-1.92171 0.87655002 0.25128499
-1.92171 1.2022901 0.56491101
-1.92171 1.13748 0.55867499
-1.86967 1.14022 0.652228
-1.92171 1.6372401 0.35515001
-1.87562 1.30968 0.74339998
-1.92171 1.38816 0.49844801
-1.86967 1.59236 0.64392799
-1.92171 1.34501 0.54312199
-1.84945 1.34866 0.78110099
-1.90219 1.39684 0.68316603
-1.92171 1.7310801 0.224448
-1.8913 1.53271 0.67612302
-1.87441 1.41175 0.748568
-1.92171 1.27599 0.498781
-1.8287899 1.76701 0.35393599
-1.92171 1.25234 0.59699303
-1.88569 1.79015 0.35393599
-1.91794 1.22562 0.59999698
-1.88898 1.15974 0.739824
-1.92171 1.59424 0.3994
-1.77959 1.635 0.78110099
-1.86967 0.91142797 0.65743297
-1.89214 1.13855 0.67251599
-1.92171 1.2039 0.54396403
-1.92171 1.14447 0.47949201
-1.89467 1.1507 0.66167802
-1.86967 1.32522 0.655586
-1.86967 1.13705 0.64374202
-1.9022501 1.45359 0.59802997
-1.8259 1.36385 0.35393599
-1.87491 1.60531 0.74645799
-1.8836401 0.97009897 0.35393599
-1.92171 1.64809 0.58585602
-1.86967 1.06232 0.75098503
-1.7297 0.92660099 0.78110099
-1.88301 0.89832097 0.71169299
-1.86967 1.4629 0.721596
-1.92171 1.22623 0.37136301
-1.86967 1.04105 0.665793
-1.86967 1.21963 0.664114
-1.92171 1.75302 0.391837
-1.89856 0.918679 0.35393599
-1.87211 1.32427 0.76946598
-1.85657 1.5641201 0.78110099
-1.89496 1.52042 0.66042697
-1.87536 0.97498202 0.77022398
-1.92171 1.01291 0.434589
-1.86967 0.89462101 0.75038302
-1.92171 1.6859601 0.33997199
-1.73237 1.3621 0.35393599
-1.86967 1.73702 0.73774499
-1.88108 1.1806901 0.77155602
-1.9095 1.83338 0.28209701
-1.86967 0.90666503 0.61816299
-1.88411 1.2052701 0.76073098
-1.8797899 1.74874 0.35393599
-1.8983901 1.44259 0.69947201
-1.82906 1.19212 0.35393599
-1.9095 0.89464402 0.31941801
-1.9095 1.19756 0.300951
-1.86967 1.2516 0.75194001
-1.82256 1.26543 0.35393599
-1.90762 1.0016 0.65985698
-1.92171 1.33385 0.35645401
-1.86967 0.87810302 0.74727899
-1.92171 0.92160898 0.42809701
-1.9095 1.82807 0.20989101
-1.9044501 1.79017 0.35393599
-1.92171 1.1850801 0.40766099
-1.9095 1.70652 0.247209
-1.86967 1.43286 0.64774501
-1.84971 1.15894 0.35393599
-1.86967 1.61024 0.72886699
-1.92171 0.90919602 0.48844501
-1.92171 1.1603301 0.56120902
-1.86967 1.51298 0.62153602
-1.92171 1.02984 0.359725
-1.89596 1.60163 0.65614599
-1.9095 1.67421 0.32555199
-1.83297 1.23066 0.78110099
-1.90338 1.65636 0.35393599
-1.86967 1.73927 0.761608
-1.92171 1.3588099 0.55297101
-1.86967 1.24876 0.61127901
-1.86967 1.48002 0.74555099
-1.92171 1.70714 0.34159899
-1.86967 1.66002 0.71863502
-1.78564 1.5296299 0.78110099
-1.88486 0.88737398 0.35393599
-1.92171 0.95778501 0.30447999
-1.76213 1.70885 0.78110099
-1.92171 1.54036 0.55953598
-1.9095 1.76408 0.23680601
-1.92171 0.87304997 0.26039299
-1.85597 1.60493 0.78110099
-1.83796 1.19467 0.35393599
-1.80154 0.93234199 0.78110099
-1.92171 1.34858 0.51242203
-1.87304 0.95313901 0.778427
-1.9095 1.70906 0.28400201
-1.89443 1.17382 0.71647
-1.91829 1.31391 0.614088
-1.91747 1.01748 0.61762798
-1.86967 0.99102199 0.61038798
-1.92171 0.89382899 0.211505
-1.8769799 1.22768 0.73754197
-1.7838399 1.22252 0.35393599
-1.9095 1.1672601 0.33068499
-1.92171 1.44417 0.57694101
-1.86234 0.90769601 0.35393599
-1.89179 1.4407901 0.67401898
-1.92171 1.46266 0.56940699
-1.86385 1.12702 0.78110099
-1.86967 1.1818399 0.638807
-1.83685 1.04304 0.78110099
-1.92171 0.91772199 0.28506401
-1.7999001 1.39378 0.35393599
-1.92171 1.3974 0.56424201
-1.92171 1.6716501 0.39574701
-1.91765 1.49923 0.61684299
-1.72612 1.83017 0.78110099
-1.89045 1.12327 0.59802997
-1.90762 1.1028399 0.35393599
-1.92171 1.49716 0.468833
-1.8751 1.37955 0.74563599
-1.92171 1.0757999 0.402181
-1.89265 1.01899 0.67031699
-1.9095 1.83327 0.31799999
-1.91869 1.56508 0.612369
-1.92171 1.32504 0.57353002
-1.89008 1.2958 0.73513001
-1.8952301 1.49338 0.71302998
-1.92171 1.6739399 0.385245
-1.75139 1.32535 0.35393599
-1.92171 1.74174 0.237795
-1.78962 0.99505401 0.78110099
-1.8706599 1.3337801 0.78032202
-1.87763 1.43128 0.73476702
-1.92171 1.63486 0.354783
-1.92171 1.56599 0.48085001
-1.9095 1.8256299 0.34348199
-1.92171 1.31753 0.430554
-1.88021 1.6966701 0.72371
-1.87595 1.86612 0.35393599
-1.87561 1.0022399 0.74345797
-1.92171 1.15172 0.52983201
-1.90288 1.41309 0.59802997
-1.9095 1.82248 0.33308399
-1.9095 1.15881 0.32820699
-1.92171 1.1258 0.426489
-1.80146 1.85843 0.35393599
-1.92171 0.98018903 0.26641101
-1.8654799 1.40692 0.78110099
-1.9028701 1.26907 0.62650901
-1.86967 1.0621901 0.74821299
-1.92171 1.54277 0.58871698
-1.86967 1.5094399 0.63119102
-1.92171 1.23019 0.52484602
-1.92171 1.23169 0.49150401
-1.9095 1.10462 0.319132
-1.9095 1.29365 0.292463
-1.87641 1.3944401 0.59802997
-1.87651 1.29575 0.59802997
-1.88569 1.79015 0.35393599
-1.90224 1.7641 0.35393599
-1.89433 1.33575 0.35393599
-1.86967 1.30996 0.70622802
-1.86967 1.49719 0.75314599
-1.71504 1.58705 0.78110099
-1.92171 1.66703 0.42175299
-1.92171 1.7666301 0.399593
-1.92156 1.26419 0.59936202
-1.86967 1.13406 0.633246
-1.84588 1.42598 0.78110099
-1.89904 1.00236 0.69666398
-1.88822 1.3910201 0.68935901
-1.92171 1.16916 0.43384901
-1.9095 1.09294 0.31209201
-1.92171 1.82732 0.339342
-1.81999 1.83706 0.35393599
-1.87341 1.21735 0.75288099
-1.87511 1.4597501 0.74558699
-1.86967 1.25008 0.64265299
-1.87666 1.48018 0.73895299
-1.86967 1.13991 0.64089799
-1.78742 1.79237 0.78110099
-1.92171 1.5558701 0.55789798
-1.90719 1.64291 0.60796303
-1.89737 1.1425101 0.70383102
-1.92171 1.73239 0.450892
-1.78435 1.1663899 0.35393599
-1.92171 1.09007 0.43418401
-1.90958 1.48283 0.65146703
-1.74607 1.4742399 0.35393599
-1.9095 1.86084 0.241514
-1.9095 1.1811 0.315653
-1.82705 1.75798 0.78110099
-1.87589 0.98396301 0.35393599
-1.86967 1.68569 0.76126403
-1.88822 1.37123 0.68933201
-1.80782 1.76125 0.78110099
-1.92171 0.89383602 0.447882
-1.8978699 1.47799 0.64792699
-1.89819 1.43163 0.700342
-1.9095 0.95620501 0.29035699
-1.86463 1.69259 0.78110099
-1.89715 1.4603601 0.65102297
-1.86967 1.69425 0.73560703
-1.76703 1.22949 0.35393599
-1.9095 1.7084399 0.26082
-1.86967 1.56796 0.70147401
-1.86967 1.65969 0.69793999
-1.80562 1.71594 0.78110099
-1.92171 1.2924401 0.42676201
-1.90139 1.61831 0.686593
-1.89623 0.934843 0.65497601
-1.8497699 1.02153 0.35393599
-1.89706 1.6023099 0.59802997
-1.89781 1.15223 0.70197201
-1.87787 1.61333 0.73374403
-1.92171 1.5137 0.4806
-1.87942 1.51538 0.77116901
-1.84945 1.34866 0.78110099
-1.91289 0.90018398 0.63727099
-1.92171 1.0429699 0.356637
-1.92171 1.38413 0.59437299
-1.89818 1.45304 0.64658999
-1.88642 1.34156 0.75082898
-1.92171 1.25603 0.53181303
-1.92171 0.88773602 0.58739799
-1.8224699 1.46828 0.78110099
-1.86967 1.03145 0.704889
-1.90921 1.30618 0.653063
-1.90653 1.76563 0.35393599
-1.8916 1.53625 0.674851
-1.92171 1.49877 0.40439799
-1.79233 1.3292201 0.78110099
-1.92171 1.60193 0.39409199
-1.86967 1.22315 0.62616599
-1.90843 1.60789 0.35393599
-1.9064699 1.26327 0.61104298
-1.89377 1.42741 0.59802997
-1.87119 1.09752 0.76240802
-1.89191 1.63394 0.727247
-1.77746 1.04816 0.78110099
-1.74125 1.41635 0.78110099
-1.9095 1.01056 0.31812301
-1.80454 0.90418899 0.78110099
-1.8706501 0.93120402 0.764723
-1.89156 0.89116299 0.728778
-1.88226 1.34917 0.71490699
-1.86967 1.48966 0.73050499
-1.84076 1.30901 0.78110099
-1.90398 1.25693 0.62173402
-1.89799 1.25398 0.64743298
-1.9060301 1.09196 0.61292201
-1.89645 1.21111 0.35393599
-1.88855 1.37835 0.68793601
-1.72963 0.91011399 0.78110099
-1.86967 0.99102199 0.61038798
-1.79322 1.47983 0.35393599
-1.92171 1.71524 0.45870799
-1.91702 1.01187 0.61953402
-1.86967 1.30074 0.78055698
-1.90765 0.94223499 0.65973902
-1.9095 1.85288 0.22976699
-1.88252 0.98325598 0.71377301
-1.92171 1.19257 0.359505
-1.87784 1.36132 0.77462101
-1.92171 1.2812901 0.30757701
-1.92171 1.28585 0.47461799
-1.87238 1.74472 0.76952899
-1.86967 1.17509 0.65448302
-1.92171 1.0169899 0.54941303
-1.86967 1.56789 0.65895599
-1.92171 1.08674 0.46342
-1.91225 1.17742 0.64000398
-1.9095 1.67133 0.284814
-1.87406 1.03188 0.750072
-1.92171 1.17539 0.52720702
-1.86967 1.29449 0.63217002
-1.78337 1.70234 0.78110099
-1.86967 1.58786 0.73877299
-1.90947 1.1273299 0.65191603
-1.92171 1.70714 0.34159899
-1.9095 1.28669 0.34788799
-1.91829 1.61533 0.59802997
-1.9046201 1.42168 0.67274398
-1.92171 1.72416 0.42078099
-1.92171 1.39658 0.46073601
-1.92171 1.21014 0.35461801
-1.89106 1.50038 0.67715597
-1.8949701 1.2582999 0.714145
-1.92171 1.7885799 0.25893399
-1.82814 1.29688 0.35393599
-1.76091 1.83228 0.35393599
-1.92171 1.31662 0.30206999
-1.71504 1.58705 0.78110099
-1.92171 1.49299 0.49992999
-1.78967 1.8597701 0.35393599
-1.92171 1.27189 0.46455699
-1.92171 1.7633899 0.419085
-1.9095 1.06338 0.35310599
-1.92171 1.15832 0.40830401
-1.7366 1.29545 0.35393599
-1.92171 1.67742 0.213658
-1.92171 1.4501801 0.540519
-1.92171 1.4509701 0.44736201
-1.88069 1.22061 0.35393599
-1.8991899 1.2138799 0.696055
-1.7289701 0.96235198 0.78110099
-1.9095 1.69956 0.21106599
-1.84261 1.04133 0.78110099
-1.87 1.13211 0.76750702
-1.92171 0.93391001 0.250007
-1.92171 1.0231 0.43175
-1.92171 1.71926 0.48105699
-1.85883 1.11449 0.35393599
-1.78564 1.5296299 0.78110099
-1.86967 1.19592 0.61988002
-1.89834 1.18577 0.69970101
-1.88834 1.2278301 0.74258697
-1.92171 1.78169 0.31129599
-1.85692 1.28504 0.35393599
-1.92171 1.4757 0.55434102
-1.90871 0.90325397 0.601421
-1.87357 1.75102 0.75218701
-1.8820699 1.36579 0.76949602
-1.9086601 0.97187001 0.60163999
-1.9095 1.61415 0.34505001
-1.81576 1.44224 0.78110099
