# .PCD v0.7 - Point Cloud Data file format
VERSION 0.7
FIELDS x y z
SIZE 4 4 4
TYPE F F F
COUNT 1 1 1
WIDTH 1694
HEIGHT 1
VIEWPOINT 0 0 0 1 0 0 0
POINTS 1694
DATA ascii
4.0405302 -1.2809 3.06218
4.16926 -1.93246 3.06218
4.24087 -1.95205 3.0999999
4.0483799 -1.90116 3.06218
3.9665401 -1.79418 3.0855501
4.16008 -1.1567 3.0999999
4.0550299 -1.29382 3.06218
4.0643802 -1.24476 3.0999999
4.2513199 -1.1555901 3.06218
3.9699199 -1.62126 3.0999999
4.0288301 -1.3185101 3.06218
4.1459398 -1.79626 3.0999999
4.1455202 -1.59419 3.0999999
4.2606602 -1.56083 3.0999999
4.04493 -2.1154399 3.0999999
4.0343399 -1.57386 3.0999999
4.2757902 -1.41506 3.06218
4.1686401 -1.73139 3.0999999
4.2788 -1.8854001 3.06218
4.0748601 -1.9574701 3.06218
4.2011299 -1.95793 3.06218
3.97223 -2.0204401 3.06218
4.2156601 -1.33207 3.0999999
4.1860199 -1.8951 3.0999999
4.09059 -1.33734 3.06218
4.2076702 -1.60615 3.0999999
4.01123 -1.2759 3.06218
4.2530298 -1.32654 3.06218
4.0363002 -1.75011 3.06218
4.1766801 -1.7901 3.0999999
4.0233302 -2.0992801 3.0999999
4.09234 -1.18116 3.06218
4.2803302 -1.42577 3.06218
3.97523 -1.62593 3.06218
4.16394 -1.9975899 3.06218
4.1040201 -1.93391 3.0999999
4.2606301 -1.95544 3.06218
4.0834398 -1.68225 3.06218
4.2156601 -1.33207 3.0999999
4.0282698 -1.80572 3.0999999
3.98224 -1.73932 3.06218
4.2371202 -1.7873 3.0999999
4.2746501 -2.11696 3.06218
3.9762299 -1.73905 3.06218
4.2543402 -1.18405 3.06218
4.0362902 -1.89678 3.06218
4.0854301 -1.56932 3.06218
4.0450301 -1.27985 3.0999999
4.27351 -1.60131 3.06218
4.1520801 -1.2273999 3.0999999
4.17242 -1.23295 3.0999999
4.2313399 -1.55256 3.06218
4.0597401 -1.88573 3.06218
4.1670299 -1.65005 3.0999999
4.0845499 -1.2768199 3.0999999
4.1619 -1.88451 3.0999999
4.28479 -1.50354 3.0999999
4.0079598 -1.9557101 3.0999999
4.21455 -1.70198 3.0999999
4.0766902 -1.71837 3.06218
4.1069198 -1.54992 3.06218
4.0154099 -1.5256701 3.0999999
4.0756898 -1.7729599 3.0999999
4.00208 -1.97575 3.0999999
4.2148199 -2.11358 3.0999999
4.2010899 -2.12954 3.06218
4.0532999 -1.5808901 3.06218
4.1874399 -1.48551 3.06218
4.18291 -1.60479 3.0999999
4.0026002 -2.0493701 3.06218
4.0467801 -1.14206 3.0999999
4.2395201 -1.64092 3.06218
4.1596498 -1.77835 3.06218
4.0377698 -1.7281801 3.06218
4.1940799 -1.14184 3.0999999
4.1136398 -1.53333 3.06218
3.9704499 -2.0899899 3.06218
4.0394101 -1.27203 3.0999999
4.1154199 -1.95261 3.0999999
3.98211 -2.0438001 3.0999999
3.97047 -1.16563 3.0999999
4.2458 -1.91397 3.06218
3.9913299 -1.65121 3.0999999
4.1179399 -1.25125 3.0999999
4.2179999 -1.84991 3.0999999
4.1085801 -1.90415 3.06218
4.2209501 -1.28757 3.06218
4.1933298 -1.26174 3.06218
4.03304 -1.7876199 3.0999999
4.0715699 -1.24017 3.06218
4.2511702 -1.65652 3.0999999
4.0423799 -1.2422301 3.0999999
4.2070198 -1.33836 3.06218
4.2792201 -1.66918 3.06218
4.12293 -2.0913401 3.0999999
4.16747 -1.71543 3.0999999
3.9665401 -1.66737 3.0635099
4.1090298 -1.17442 3.0999999
4.0804901 -1.9131401 3.06218
4.0232501 -1.8061399 3.0999999
3.98716 -1.48164 3.06218
3.9896801 -1.6723599 3.0999999
4.2287402 -1.21462 3.06218
4.0571399 -1.28348 3.06218
4.0644999 -2.0005801 3.06218
4.1353102 -1.13403 3.0999999
4.2009301 -2.09548 3.06218
4.16998 -1.19314 3.0999999
4.2118902 -1.48808 3.0999999
3.9665401 -1.5570101 3.0922899
4.23207 -1.52219 3.0999999
4.03195 -1.8282501 3.06218
3.97065 -1.34482 3.0999999
4.0297298 -1.9998 3.0999999
4.1518798 -1.61466 3.0999999
4.0343299 -1.8541501 3.06218
3.9954 -1.21251 3.06218
4.0929298 -1.20139 3.06218
4.05059 -1.72399 3.0999999
4.0853801 -1.74807 3.06218
4.08289 -1.79074 3.06218
4.09378 -1.57547 3.0999999
4.1166902 -1.7838 3.0999999
4.1841302 -1.83101 3.06218
4.0463099 -1.61639 3.06218
4.0026002 -2.0493701 3.06218
4.0167499 -2.0169599 3.0999999
4.0904999 -1.92883 3.06218
4.2522702 -2.0729301 3.0999999
4.18469 -1.73145 3.06218
3.9665401 -2.0961699 3.0861399
4.1766801 -1.7901 3.0999999
4.2195001 -1.7343 3.0999999
4.0490699 -1.55266 3.06218
4.2286901 -1.2191499 3.0999999
4.1733999 -1.96719 3.06218
4.0552702 -1.91237 3.0999999
3.9740901 -1.8178101 3.06218
3.98891 -1.40145 3.06218
4.2509499 -1.61852 3.06218
4.27531 -1.27817 3.06218
4.2814898 -2.05652 3.0999999
4.1518798 -1.61466 3.0999999
4.1761699 -1.3639899 3.06218
4.2424402 -1.6475199 3.06218
4.1394801 -1.8587 3.0999999
4.2142501 -1.32763 3.06218
4.0327201 -1.76687 3.06218
3.9926901 -1.2460901 3.06218
4.0894098 -1.31635 3.0999999
4.1360202 -1.92793 3.06218
4.2797699 -1.68898 3.0999999
4.1763902 -2.05214 3.06218
3.9882801 -1.6943099 3.0999999
4.2332201 -1.75669 3.0999999
3.99663 -1.3016599 3.0999999
4.0378399 -1.26199 3.06218
4.2151599 -2.02123 3.0999999
4.0509501 -2.0475299 3.0999999
4.1468501 -1.24229 3.0999999
3.9665401 -1.38422 3.07531
4.16787 -1.64916 3.06218
4.0009899 -1.83345 3.06218
4.1076198 -1.2136101 3.0999999
4.16922 -2.00086 3.0999999
4.0977101 -1.95961 3.0999999
4.14994 -1.74075 3.0999999
4.2197299 -2.05829 3.06218
4.2134199 -2.08097 3.06218
4.026 -1.14055 3.06218
4.0963001 -1.7193 3.0999999
4.2382302 -1.9155101 3.0999999
3.9665401 -1.59089 3.09215
4.21103 -1.66584 3.06218
4.0773802 -2.10373 3.06218
4.1255898 -1.22534 3.0999999
4.2185302 -1.68165 3.0999999
4.19243 -1.95786 3.06218
3.9979899 -1.6291 3.0999999
4.0446601 -1.8555599 3.06218
4.18997 -2.1050701 3.0999999
4.2169099 -1.6110801 3.06218
4.0823798 -1.88015 3.06218
4.02707 -1.98271 3.06218
4.1993699 -1.18522 3.06218
4.1929798 -1.81432 3.0999999
3.96808 -1.6398 3.06218
4.03161 -1.5758801 3.0999999
4.09939 -1.8642 3.06218
4.2111702 -1.29164 3.0999999
4.0359602 -1.96269 3.06218
4.2697201 -1.33428 3.0999999
4.2602201 -1.62923 3.0999999
4.2572298 -1.3710001 3.06218
4.0590401 -1.99131 3.06218
4.09793 -1.67966 3.0999999
4.1379499 -1.5908099 3.06218
3.9885099 -1.39358 3.0999999
4.2090502 -1.68295 3.0999999
3.9806199 -2.01319 3.06218
4.2755699 -1.67252 3.06218
4.0093298 -1.88607 3.0999999
3.9665401 -1.67981 3.08482
4.1824198 -1.73772 3.06218
4.2387199 -1.99396 3.06218
4.0557299 -1.72638 3.06218
4.05408 -1.1654 3.0999999
4.0343299 -1.8541501 3.06218
4.2755699 -1.67252 3.06218
4.0883598 -1.73129 3.0999999
4.2811799 -1.66977 3.06218
4.1610999 -1.71279 3.0999999
4.14292 -2.0945799 3.06218
4.1402001 -1.60311 3.06218
4.2701702 -1.30404 3.0999999
4.0283799 -1.95629 3.06218
4.14504 -1.22794 3.06218
4.0704498 -2.0513599 3.06218
4.2307501 -1.23668 3.0999999
3.9665401 -1.95208 3.0819099
4.0422602 -1.74476 3.0999999
4.2010899 -2.12954 3.06218
4.09515 -1.3154 3.06218
4.2279601 -1.98763 3.0999999
4.2713399 -1.1997 3.0999999
4.0988102 -2.0580101 3.0999999
4.2751398 -2.07775 3.06218
4.1040201 -1.93391 3.0999999
4.2792802 -1.49617 3.06218
4.02841 -1.68585 3.0999999
4.14817 -2.0286601 3.0999999
4.23911 -1.32372 3.0999999
4.0350499 -1.6059099 3.0999999
4.0567002 -2.06288 3.06218
4.0478702 -1.77613 3.0999999
4.0774202 -1.65834 3.0999999
3.9762299 -1.73905 3.06218
4.2136402 -1.99704 3.0999999
4.14785 -1.89398 3.0999999
4.0508099 -1.62994 3.0999999
4.1601801 -2.0663099 3.0999999
4.1995401 -1.25966 3.06218
3.99828 -1.86048 3.0999999
4.1533198 -1.5906 3.0999999
4.2755699 -1.5708899 3.0999999
4.0871301 -1.78548 3.0999999
4.1957302 -1.9536 3.06218
4.11134 -1.70701 3.0999999
3.99471 -1.3251899 3.0999999
3.9786601 -1.4630899 3.0999999
3.9665401 -1.23053 3.08497
4.1309299 -1.7413501 3.06218
4.0619001 -1.7026 3.0999999
3.9885099 -1.39358 3.0999999
4.2543402 -1.18405 3.06218
3.9665401 -1.14099 3.0877299
4.2374601 -1.92924 3.0999999
3.98739 -1.26411 3.06218
4.1143198 -1.8987 3.0999999
4.0912199 -2.10022 3.0999999
4.0742402 -1.60677 3.0999999
4.0062499 -1.54254 3.06218
4.25559 -1.23709 3.06218
4.1863098 -1.67862 3.0999999
3.9665401 -1.45316 3.0738699
4.1722498 -1.6269 3.0999999
4.2603202 -2.01682 3.0999999
4.1584301 -1.88095 3.0999999
4.2387199 -1.99396 3.06218
4.0049801 -1.52632 3.0999999
4.1348801 -1.2558 3.06218
4.0875702 -2.02613 3.06218
4.0788102 -1.30591 3.0999999
4.1495299 -1.60829 3.06218
4.2028399 -1.69341 3.06218
4.19766 -1.56227 3.0999999
4.1876898 -1.37016 3.0999999
3.9998901 -1.50922 3.0999999
4.03719 -1.66777 3.06218
4.2185302 -1.68165 3.0999999
4.1442599 -1.59574 3.0999999
4.1419902 -1.20029 3.0999999
4.0131402 -1.54976 3.0999999
4.13798 -1.9046 3.0999999
3.9665401 -1.89494 3.09951
4.0915098 -1.95152 3.06218
4.0853701 -1.91243 3.06218
4.1842499 -1.30129 3.06218
3.9665401 -1.20898 3.08881
4.0832701 -1.77385 3.06218
4.0378599 -1.64893 3.0999999
4.22651 -1.14923 3.06218
3.9691401 -1.3713599 3.06218
4.1175098 -1.63073 3.06218
3.9665401 -1.96257 3.0958099
4.1929798 -1.81432 3.0999999
4.2290201 -1.1597199 3.0999999
4.1615701 -1.70603 3.06218
3.9665401 -1.2728 3.0972099
4.1466498 -1.73061 3.06218
3.9986501 -1.89083 3.0999999
3.97609 -1.5412 3.0999999
4.1657801 -1.2549 3.06218
3.99663 -1.3016599 3.0999999
4.0192299 -1.1846499 3.0999999
4.0700998 -2.1247499 3.06218
4.0857 -1.72212 3.0999999
4.0737901 -1.72014 3.06218
4.08499 -1.9878401 3.06218
3.9665401 -1.61412 3.09677
4.2690101 -2.0682499 3.0999999
3.9665401 -1.82811 3.0915101
4.1251798 -1.81524 3.0999999
4.2420201 -1.1351399 3.06218
4.1057701 -2.0408101 3.06218
4.0503998 -1.19031 3.0999999
4.0527201 -2.0460701 3.0999999
4.1154199 -1.95261 3.0999999
4.2437 -1.79419 3.06218
4.0696602 -1.67349 3.06218
4.1880498 -1.28901 3.06218
4.0375299 -1.19462 3.0999999
4.2470102 -1.4908201 3.0999999
4.22019 -1.27558 3.06218
4.1200399 -2.1282699 3.06218
4.2158098 -1.27951 3.06218
4.0950398 -1.54048 3.0999999
3.9665401 -1.26625 3.0859699
4.0675101 -1.13995 3.06218
4.0486498 -1.1356 3.0999999
4.27775 -1.4258 3.0999999
4.0840101 -1.30942 3.06218
4.1006098 -1.9946001 3.06218
4.2308402 -2.0316601 3.06218
4.0571399 -1.28348 3.06218
4.1581001 -1.18888 3.06218
4.2695298 -1.29784 3.06218
4.0707002 -1.78765 3.06218
4.02707 -1.98271 3.06218
4.0131502 -1.80928 3.0999999
4.2547798 -1.97463 3.06218
4.1895399 -1.38653 3.0999999
4.0722799 -2.0501699 3.0999999
4.15242 -1.7478499 3.0999999
4.1796598 -1.15562 3.0999999
4.2785902 -1.57184 3.06218
4.0763102 -1.6197799 3.0999999
3.9771199 -1.88442 3.06218
4.1452398 -1.87054 3.0999999
4.1761999 -1.18448 3.06218
3.9728701 -1.83759 3.06218
4.04006 -2.0661399 3.06218
4.09515 -1.24597 3.0999999
4.2576799 -1.79285 3.06218
4.0159998 -1.69978 3.06218
4.0689201 -1.1774 3.0999999
4.2417102 -1.39688 3.0999999
3.9835701 -1.50065 3.0999999
3.9705601 -1.96349 3.0999999
4.1275802 -1.54647 3.0999999
4.2228799 -1.19853 3.0999999
4.14463 -1.28942 3.0999999
4.1000299 -1.6420701 3.06218
3.9665401 -1.30553 3.09214
4.2690501 -1.89387 3.06218
4.0884099 -1.59645 3.0999999
4.0525599 -2.0365601 3.0999999
3.9679799 -1.9130599 3.06218
4.1128898 -1.9775701 3.0999999
4.2181501 -1.98695 3.06218
4.09834 -2.0274999 3.06218
4.0291901 -1.3512501 3.0999999
4.0009899 -1.83345 3.06218
4.2754698 -1.15896 3.06218
4.2672801 -1.5798399 3.06218
4.1796598 -1.15562 3.0999999
4.2423801 -1.8581899 3.0999999
4.1825199 -1.9473799 3.06218
4.1937499 -1.5872999 3.0999999
4.0680199 -1.65975 3.06218
4.2067099 -1.45898 3.0999999
4.0233302 -2.0992801 3.0999999
4.2086 -1.28456 3.06218
3.9763501 -1.60505 3.06218
4.09515 -1.24597 3.0999999
4.1989398 -1.60193 3.0999999
4.0485601 -1.22671 3.0999999
4.2194099 -1.71992 3.06218
4.1213298 -1.2601399 3.06218
4.0198102 -1.8282501 3.06218
4.2367601 -1.44198 3.0999999
4.18575 -1.1971 3.06218
4.2859001 -1.2153 3.0999999
4.0644202 -1.95546 3.0999999
4.08179 -1.5726 3.0999999
3.9665401 -1.88343 3.07813
3.99441 -1.9863 3.06218
4.1308799 -1.94489 3.0999999
4.2708902 -2.10642 3.06218
4.27316 -1.4453501 3.06218
4.2585402 -1.95687 3.0999999
4.1311202 -1.96137 3.06218
4.1071801 -1.5934 3.06218
3.97521 -2.0846801 3.06218
4.1634402 -1.62554 3.0999999
4.1265001 -1.7820801 3.0999999
4.1052899 -1.60291 3.06218
4.2491002 -1.6854399 3.0999999
4.0988302 -1.56029 3.06218
4.0704498 -1.67014 3.0999999
4.1923299 -2.0253799 3.06218
4.1632099 -1.99324 3.06218
3.9828501 -1.21956 3.06218
4.0645199 -1.28518 3.06218
4.2005701 -1.65558 3.06218
4.2622399 -1.98525 3.06218
4.2062898 -1.61517 3.0999999
4.0374298 -2.0044701 3.06218
4.1115999 -1.683 3.0999999
4.2150402 -1.60023 3.0999999
4.2416501 -1.6863199 3.06218
4.20539 -1.20479 3.0999999
4.2767901 -1.1519901 3.06218
4.1581001 -1.18888 3.06218
4.2539601 -1.58295 3.0999999
4.1620302 -1.99753 3.06218
4.2669401 -1.1744699 3.0999999
3.9742401 -1.45561 3.0999999
4.0976901 -1.82981 3.0999999
4.0587602 -1.93718 3.0999999
4.1353302 -1.2628 3.06218
4.0836201 -1.56626 3.06218
4.2797699 -1.68898 3.0999999
4.11134 -1.70701 3.0999999
3.9665401 -1.20324 3.0924399
3.98001 -1.57235 3.0999999
4.1782398 -1.62356 3.0999999
4.1394501 -2.03076 3.0999999
4.1000299 -1.6420701 3.06218
4.0051198 -1.98202 3.06218
4.0065598 -1.78348 3.0999999
4.1628499 -1.76942 3.0999999
4.0672898 -1.8571301 3.06218
4.18188 -1.87204 3.06218
4.2527699 -1.65817 3.0999999
4.0468998 -1.19576 3.0999999
4.0687099 -1.80046 3.06218
4.2713499 -1.50464 3.0999999
4.1426301 -2.0041599 3.0999999
4.1756902 -2.0599599 3.0999999
4.1387401 -1.9446 3.0999999
4.2516198 -1.87881 3.0999999
4.1347599 -1.719 3.06218
4.20649 -1.7784899 3.0999999
4.1512499 -1.83619 3.06218
4.0853601 -2.0861101 3.0999999
4.0580001 -1.2399499 3.0999999
4.1546302 -1.2640899 3.0999999
4.0878901 -1.7871701 3.06218
3.9665401 -1.4431 3.0680301
4.26442 -1.93725 3.06218
3.9838099 -1.6162 3.0999999
4.0550299 -1.29382 3.06218
4.2431302 -1.6101201 3.0999999
4.2803202 -1.7510099 3.06218
4.2351198 -1.48493 3.06218
4.0282798 -1.6834 3.06218
4.2312498 -1.69007 3.0999999
4.09515 -1.3154 3.06218
4.24857 -1.18907 3.06218
3.9777801 -1.14167 3.06218
4.2573199 -1.2727 3.06218
4.1195002 -1.20454 3.06218
3.9665401 -2.0509901 3.09901
3.9665401 -1.67981 3.08482
4.1170201 -1.6303 3.0999999
4.26126 -1.32614 3.06218
4.15869 -1.77279 3.0999999
4.17873 -1.7352901 3.0999999
4.00881 -1.66141 3.0999999
3.97858 -2.0613501 3.06218
4.0984602 -1.7817 3.0999999
4.2677002 -1.2173001 3.0999999
4.0591202 -2.0432799 3.06218
4.2532501 -1.92283 3.0999999
4.0351901 -2.0999999 3.06218
3.9665401 -2.07655 3.08957
4.02039 -1.3157099 3.06218
4.0334802 -2.0492599 3.0999999
4.05687 -1.87731 3.06218
4.1200399 -1.9118 3.0999999
4.1352601 -1.75448 3.0999999
4.1893601 -1.68288 3.0999999
3.9998901 -1.50922 3.0999999
3.9807799 -1.21242 3.0999999
3.97381 -2.0699999 3.0999999
4.17062 -1.89328 3.0999999
4.2028098 -1.35598 3.0999999
4.2055101 -1.71053 3.0999999
4.0272999 -1.7087801 3.06218
4.0120802 -1.80277 3.0999999
4.1556602 -1.9814399 3.06218
4.1824398 -1.71539 3.0999999
4.2445202 -1.16222 3.06218
3.99562 -1.87743 3.06218
4.1777 -1.99635 3.0999999
4.1098399 -1.58083 3.0999999
3.9665401 -1.7616 3.0824599
4.2070198 -1.33836 3.06218
4.2118902 -1.48808 3.0999999
3.98311 -1.35563 3.0999999
4.2185402 -1.37088 3.0999999
4.1907701 -1.9633 3.0999999
4.2069001 -1.57046 3.06218
4.1960902 -1.24619 3.06218
4.2337198 -1.83042 3.0999999
4.0510702 -1.23782 3.0999999
4.0676899 -1.3009 3.06218
4.1492801 -2.0966899 3.0999999
3.99231 -1.16703 3.0999999
4.1447101 -1.91162 3.0999999
3.9786601 -1.4630899 3.0999999
4.02175 -1.80246 3.06218
4.0106502 -1.54827 3.0999999
4.2726498 -1.8403 3.06218
3.9762299 -1.73905 3.06218
3.9665401 -2.0634999 3.0877399
4.1668 -1.84989 3.0999999
4.1360202 -1.92793 3.06218
4.1742601 -1.88729 3.06218
4.24896 -1.17627 3.0999999
4.2470198 -1.5804 3.06218
4.2448602 -1.42643 3.0999999
4.0851598 -2.07358 3.0999999
4.2336798 -1.36112 3.06218
4.20081 -1.39727 3.0999999
4.0060201 -1.87351 3.06218
4.1449499 -1.62693 3.0999999
4.0687599 -1.23076 3.0999999
4.2557702 -2.1183801 3.06218
3.9838099 -1.6162 3.0999999
4.0015502 -1.43567 3.06218
4.09972 -1.63156 3.0999999
4.1859002 -1.84872 3.06218
4.2332201 -1.75669 3.0999999
4.24822 -1.73147 3.06218
3.9665401 -1.35651 3.0811701
4.2783999 -1.70319 3.06218
4.21591 -1.72795 3.0999999
4.2067499 -1.96986 3.0999999
4.1969299 -1.99586 3.06218
4.2792201 -1.66918 3.06218
4.2218299 -2.08517 3.06218
4.1069899 -1.6622601 3.0999999
4.0012102 -2.06916 3.06218
3.98739 -1.26411 3.06218
4.27068 -2.0527599 3.06218
4.1696501 -1.78044 3.0999999
3.97282 -2.1096399 3.06218
4.2182202 -1.3482701 3.0999999
4.02841 -1.68585 3.0999999
3.9665401 -1.72065 3.0852399
4.00349 -2.12902 3.0999999
4.2807002 -1.89091 3.0999999
3.99753 -2.1192701 3.0999999
4.0131502 -1.80928 3.0999999
4.09168 -1.94096 3.06218
4.1999502 -1.86273 3.0999999
4.2803502 -2.0766399 3.06218
4.0510802 -1.6684099 3.06218
4.0853801 -1.74807 3.06218
4.2681999 -1.1899 3.06218
4.1879101 -1.92827 3.0999999
4.0051999 -1.24981 3.06218
4.0472398 -1.83568 3.06218
4.17171 -1.88493 3.0999999
4.0378599 -1.22909 3.06218
4.0884099 -1.59645 3.0999999
4.12293 -2.0913401 3.0999999
4.1950998 -1.17267 3.06218
4.1452799 -1.97927 3.06218
4.26158 -2.0316601 3.0999999
3.99647 -1.98264 3.0999999
3.9920399 -1.512 3.06218
3.9665401 -1.46062 3.0969999
4.2313399 -1.55256 3.06218
4.0693402 -1.2915601 3.0999999
4.15029 -2.0132599 3.0999999
4.2628598 -2.10321 3.06218
4.2389202 -1.7405601 3.06218
4.0928402 -2.07969 3.06218
4.2557702 -2.1183801 3.06218
4.03719 -1.66777 3.06218
4.2792401 -1.47475 3.06218
4.2567 -1.3796 3.0999999
4.24787 -1.4601099 3.0999999
3.9665401 -1.18363 3.0622201
4.1501198 -1.26231 3.0999999
4.1867599 -2.11904 3.06218
4.09059 -1.33734 3.06218
4.2368202 -1.54114 3.06218
4.0689201 -1.1774 3.0999999
4.1613998 -2.1291299 3.06218
3.9914801 -1.90763 3.0999999
4.1902199 -1.89538 3.0999999
4.2042999 -1.91949 3.0999999
3.98262 -1.32686 3.0999999
4.1352601 -1.75448 3.0999999
4.1619 -1.88451 3.0999999
4.2656102 -1.56239 3.06218
4.0085001 -1.3192 3.06218
4.0082202 -1.33118 3.06218
4.1367202 -2.0190101 3.0999999
4.2585402 -1.95687 3.0999999
3.99072 -1.74235 3.06218
4.0409799 -1.84589 3.0999999
3.9926901 -1.2460901 3.06218
4.03865 -2.10338 3.0999999
4.1601801 -2.0663099 3.0999999
4.2722802 -1.29566 3.0999999
4.1293502 -1.6024899 3.0999999
4.2837601 -1.61016 3.0999999
4.1869402 -1.24867 3.06218
4.1162801 -1.92998 3.0999999
4.0867701 -1.87095 3.06218
4.23663 -1.65623 3.0999999
4.15029 -1.78171 3.06218
4.1616802 -1.1823601 3.06218
4.16394 -1.9975899 3.06218
4.0758901 -1.20532 3.06218
3.9665401 -1.6356601 3.0834
4.0936399 -2.01297 3.06218
4.2175202 -1.53179 3.06218
4.1815701 -1.31972 3.0999999
4.2476101 -1.17767 3.06218
4.2729702 -1.50738 3.0999999
3.9665401 -1.42647 3.09197
4.1626801 -1.61991 3.06218
4.0654702 -2.0141499 3.0999999
4.1255898 -1.22534 3.0999999
4.1088099 -1.64315 3.06218
4.1442599 -1.59574 3.0999999
4.15136 -1.34043 3.06218
4.0508099 -1.62994 3.0999999
4.2239299 -2.09584 3.06218
4.0531402 -2.0697999 3.06218
4.0956302 -1.97496 3.0999999
4.22018 -2.0199001 3.0999999
4.1761699 -1.3639899 3.06218
3.9665401 -2.0961699 3.0861399
4.0163202 -1.33113 3.0999999
4.2147198 -1.48081 3.0999999
4.18332 -1.96183 3.0999999
3.98821 -1.55784 3.0999999
4.2069001 -1.57046 3.06218
4.2390699 -1.81467 3.0999999
4.0327201 -1.76687 3.06218
4.2757401 -1.24283 3.0999999
4.1365299 -1.96525 3.0999999
4.1350002 -1.93346 3.0999999
4.2697201 -1.33428 3.0999999
3.9665401 -1.4 3.0703299
3.9665401 -1.3002599 3.09199
4.12007 -1.90646 3.0999999
4.2185502 -2.0234301 3.06218
4.09865 -1.60698 3.0999999
4.1040201 -1.93391 3.0999999
4.2424402 -1.6475199 3.06218
4.2416902 -1.80832 3.0999999
3.98821 -1.55784 3.0999999
4.2228098 -1.13411 3.0999999
4.2731299 -2.0959899 3.06218
4.1272001 -1.74474 3.06218
4.1999698 -2.0845699 3.0999999
4.1231899 -1.55037 3.06218
4.0075402 -1.68501 3.0999999
3.9665401 -1.35194 3.07126
4.0012102 -2.06916 3.06218
4.0850301 -1.6374201 3.06218
4.0417299 -1.13609 3.06218
3.9912701 -1.76482 3.06218
3.9874001 -1.6719199 3.0999999
4.0261502 -1.7474101 3.06218
4.0246601 -1.76528 3.06218
3.9665401 -2.07655 3.08957
4.2435799 -1.66909 3.0999999
4.1379499 -1.5908099 3.06218
4.1841102 -2.12501 3.0999999
4.2705698 -1.5472701 3.06218
4.0851598 -2.07358 3.0999999
4.08289 -1.79074 3.06218
4.1370802 -2.0983901 3.0999999
4.0081701 -1.93455 3.06218
4.0097198 -1.94613 3.0999999
4.2258701 -1.87288 3.06218
4.2070198 -1.33836 3.06218
4.2147298 -1.60542 3.06218
4.2404299 -1.2439899 3.06218
4.12745 -1.74594 3.0999999
4.0213499 -2.09445 3.06218
4.1876898 -1.37016 3.0999999
4.0731702 -1.65911 3.0999999
4.0149498 -1.36958 3.06218
4.1735601 -1.20824 3.06218
4.2090602 -1.1727 3.0999999
3.9807799 -1.21242 3.0999999
4.2572699 -1.2060699 3.0999999
4.1257 -1.545 3.06218
4.19835 -2.06178 3.0999999
4.1250801 -1.93405 3.06218
4.0275502 -1.56387 3.06218
4.04497 -1.70382 3.0999999
4.2049499 -1.70485 3.06218
4.0591202 -2.0432799 3.06218
4.0894098 -1.31635 3.0999999
4.2487202 -1.32276 3.06218
4.2361698 -1.75564 3.0999999
4.1387401 -1.9446 3.0999999
4.2539601 -1.58295 3.0999999
4.15978 -2.0036199 3.06218
4.1823301 -1.62563 3.0999999
4.2416301 -1.2652299 3.06218
4.1263499 -1.70275 3.06218
4.2098799 -1.42682 3.0999999
4.1679301 -2.07177 3.0999999
4.2308402 -2.0316601 3.06218
4.1104898 -1.30179 3.06218
4.05091 -2.1146901 3.06218
4.1525402 -1.76647 3.0999999
4.1526799 -1.72893 3.0999999
4.2307401 -1.89332 3.06218
4.21455 -1.70198 3.0999999
4.2076898 -1.88495 3.0999999
3.9814799 -2.00124 3.06218
3.9885099 -1.39358 3.0999999
4.2267499 -1.54658 3.06218
4.1051798 -1.5933 3.0999999
4.1227398 -1.61315 3.0999999
4.14117 -1.61866 3.06218
4.08179 -1.5726 3.0999999
4.23806 -1.7211699 3.0999999
4.1045899 -2.0059099 3.0999999
4.2466002 -1.97682 3.0999999
4.25 -1.22867 3.06218
4.2726498 -1.8403 3.06218
4.1787 -1.63626 3.0999999
4.2090502 -1.68295 3.0999999
3.9665401 -1.14477 3.0711
3.96773 -1.44355 3.0999999
4.2761898 -1.54721 3.0999999
3.9908099 -1.7271 3.06218
4.1757302 -1.80099 3.0999999
4.02175 -1.80246 3.06218
4.1043 -2.00284 3.06218
4.0605998 -1.7021101 3.06218
4.0583 -1.55935 3.0999999
4.0472398 -1.83568 3.06218
4.2022099 -1.918 3.06218
3.9872701 -2.0952301 3.06218
4.0728202 -1.65557 3.06218
4.1744299 -2.1012199 3.06218
4.0468998 -1.19576 3.0999999
4.2133698 -1.17363 3.0999999
4.2337198 -1.83042 3.0999999
4.2228298 -1.58408 3.0999999
4.1849599 -1.33463 3.06218
3.9720399 -2.13148 3.06218
4.01682 -1.3211 3.06218
4.2361398 -1.2796201 3.06218
4.1115999 -1.683 3.0999999
4.01125 -1.56661 3.06218
4.2298598 -1.27293 3.06218
4.0514002 -1.90447 3.06218
4.1614399 -1.30423 3.0999999
4.1704001 -2.09958 3.06218
4.07198 -1.65582 3.06218
4.1269798 -1.86201 3.0999999
4.0131502 -1.80928 3.0999999
4.2560601 -1.62464 3.0999999
4.1085801 -1.90415 3.06218
4.1077099 -1.16951 3.0999999
4.0523801 -1.3290401 3.06218
3.9665401 -1.42759 3.0858099
4.1793199 -1.67673 3.06218
4.1353302 -1.2628 3.06218
3.9814799 -2.00124 3.06218
4.1185298 -2.03526 3.0999999
4.2505698 -2.07531 3.0999999
4.28128 -1.3861001 3.0999999
4.2681999 -1.1899 3.06218
4.2793999 -1.70522 3.0999999
4.1963701 -1.45813 3.06218
4.0857501 -1.7544 3.06218
4.2611799 -1.57301 3.0999999
4.0366502 -1.5249 3.0999999
4.1492801 -2.0966899 3.0999999
4.0154099 -1.5256701 3.0999999
4.2739401 -1.3954 3.0999999
4.2767801 -1.31189 3.0999999
4.1405101 -1.5934401 3.06218
4.2603202 -2.01682 3.0999999
3.9725599 -1.61554 3.06218
4.0378399 -1.26199 3.06218
4.1659398 -1.30969 3.06218
4.0356598 -2.0692101 3.0999999
4.1083899 -1.81892 3.06218
4.2659402 -2.00439 3.0999999
4.2722802 -1.29566 3.0999999
3.9665401 -1.3119 3.0740199
4.09939 -1.8642 3.06218
4.1600399 -1.80118 3.06218
4.23489 -2.0692799 3.06218
4.15029 -2.0048599 3.06218
3.9665401 -1.41703 3.07324
4.2147899 -1.15914 3.06218
4.0213599 -1.67618 3.0999999
4.2076802 -2.0862999 3.0999999
4.0472999 -1.76393 3.0999999
4.04461 -1.261 3.0999999
3.9848599 -1.92866 3.06218
3.9665401 -1.76386 3.0876801
3.9889901 -1.33515 3.06218
4.0176501 -1.31765 3.0999999
3.98173 -1.4299001 3.06218
3.9774599 -1.83978 3.06218
4.0012102 -1.96345 3.0999999
4.0128598 -1.59488 3.0999999
4.25 -1.22867 3.06218
4.2351198 -1.48493 3.06218
3.97523 -1.39774 3.0999999
4.0517402 -1.7886 3.0999999
4.1794901 -1.9828399 3.0999999
4.2195001 -1.7343 3.0999999
4.0984602 -1.7817 3.0999999
4.0159998 -1.69978 3.06218
4.16995 -1.8037699 3.0999999
4.12745 -1.74594 3.0999999
4.2505698 -2.07531 3.0999999
4.1043 -2.00284 3.06218
4.2693601 -1.99211 3.06218
4.15768 -1.80945 3.06218
3.9856801 -1.30011 3.0999999
4.13587 -1.80794 3.06218
4.17171 -1.55252 3.06218
4.0675101 -1.13995 3.06218
4.2267499 -1.54658 3.06218
4.1897898 -1.48824 3.06218
4.01331 -1.86494 3.06218
4.2108202 -1.82169 3.0999999
4.0881901 -1.62788 3.06218
4.01478 -1.8606 3.0999999
4.2347202 -1.96389 3.0999999
4.1143899 -1.16845 3.06218
4.0734301 -2.0176201 3.0999999
4.1791201 -1.81969 3.0999999
3.9665401 -1.49461 3.07985
4.0494099 -1.90802 3.0999999
4.1880498 -1.28901 3.06218
4.03725 -1.93943 3.06218
4.2195802 -2.0880799 3.0999999
4.2030401 -1.80432 3.0999999
4.2049499 -1.70485 3.06218
4.1459398 -1.79626 3.0999999
4.0236602 -1.91302 3.0999999
4.0501199 -1.2691801 3.0999999
3.9665401 -1.7668 3.09271
4.1494598 -1.59822 3.0999999
4.0956302 -1.97496 3.0999999
3.9734001 -1.59445 3.06218
4.0963001 -1.7193 3.0999999
4.1525402 -1.76647 3.0999999
3.9665401 -1.14247 3.09374
3.9881699 -1.85707 3.06218
3.9860101 -1.7111599 3.06218
4.2241001 -1.99279 3.0999999
4.1508899 -1.71114 3.06218
4.14463 -1.28942 3.0999999
4.217 -1.77071 3.0999999
4.2540698 -2.10992 3.06218
4.2267499 -1.54658 3.06218
4.2326498 -1.9845901 3.0999999
4.1839399 -1.27504 3.06218
3.97122 -1.97639 3.06218
4.2665401 -1.1736 3.06218
4.0467801 -1.14206 3.0999999
4.2568302 -1.19204 3.06218
4.0773802 -2.10373 3.06218
4.14572 -1.21042 3.06218
3.9665401 -1.30013 3.0661199
4.2722802 -1.29566 3.0999999
4.1950998 -1.17267 3.06218
4.2199602 -1.80451 3.0999999
4.2686 -1.5003 3.06218
4.1893601 -1.68288 3.0999999
4.1868801 -1.38604 3.06218
4.0222998 -2.0078399 3.0999999
4.1546302 -1.2640899 3.0999999
4.2418599 -2.0537801 3.06218
3.97382 -2.0019 3.06218
4.0376101 -1.73549 3.0999999
3.99545 -1.97033 3.0999999
4.1434102 -1.88721 3.0999999
4.1368299 -1.6286401 3.06218
4.25 -1.22867 3.06218
4.0788798 -1.8241 3.06218
4.1308799 -1.94489 3.0999999
3.99525 -1.29312 3.0999999
4.2185302 -1.68165 3.0999999
4.2665401 -1.1736 3.06218
4.2398701 -2.0392599 3.0999999
4.2195001 -1.84944 3.06218
4.16254 -2.1217401 3.0999999
4.1103501 -1.8315901 3.06218
4.0704498 -2.0513599 3.06218
3.97123 -1.80249 3.06218
4.09515 -1.3154 3.06218
4.00385 -1.49523 3.06218
4.1365299 -1.96525 3.0999999
3.9825301 -1.7666 3.06218
4.1403098 -1.2180099 3.06218
4.1515598 -2.1303 3.06218
4.2230701 -1.23533 3.0999999
4.2818499 -1.49301 3.06218
4.2511802 -1.52438 3.0999999
4.2076802 -2.0862999 3.0999999
4.1371002 -1.87991 3.0999999
4.1636 -1.83176 3.06218
4.1452799 -1.97927 3.06218
4.2501798 -1.94206 3.06218
4.2735 -1.28415 3.0999999
4.0929699 -1.97984 3.0999999
4.00207 -2.11288 3.0999999
4.03161 -1.5758801 3.0999999
3.9665401 -1.18363 3.0622201
4.0876999 -1.71285 3.0999999
4.2491002 -1.6854399 3.0999999
4.0770502 -1.1729701 3.06218
4.00666 -1.7036999 3.0999999
4.2494702 -1.2286299 3.0999999
4.1951499 -1.2201 3.0999999
4.0032701 -1.1966 3.0999999
4.1168098 -1.96149 3.0999999
4.2726798 -1.30202 3.0999999
4.13973 -2.1286099 3.06218
3.9851201 -1.99712 3.0999999
4.2674198 -1.47155 3.06218
3.98716 -1.48164 3.06218
4.0197601 -1.30811 3.0999999
4.09589 -1.94467 3.06218
3.9665401 -1.60119 3.0933199
3.9665401 -1.47402 3.09338
4.0392399 -1.30822 3.0999999
4.2796698 -1.16111 3.06218
4.1185298 -2.03526 3.0999999
4.1198802 -1.98673 3.0999999
4.2796698 -1.16111 3.06218
4.19313 -1.26968 3.0999999
4.1132598 -1.15639 3.0999999
4.06534 -1.1792901 3.06218
4.1522298 -1.5512201 3.06218
3.9665401 -1.85053 3.0627899
4.0213499 -2.09445 3.06218
3.9665401 -1.60119 3.0933199
3.9687099 -2.04335 3.0999999
4.08499 -1.9878401 3.06218
4.0380902 -2.01474 3.0999999
4.1468701 -1.96626 3.06218
3.9979899 -1.6291 3.0999999
4.0564599 -1.57348 3.06218
4.0032301 -1.24578 3.0999999
4.02531 -1.57959 3.0999999
4.2055402 -1.877 3.06218
4.0781002 -1.32947 3.0999999
4.0423799 -1.2422301 3.0999999
4.2711 -1.42484 3.06218
4.2308402 -2.0316601 3.06218
4.1893601 -1.68288 3.0999999
4.17204 -1.34123 3.0999999
4.1722498 -1.6269 3.0999999
4.1554399 -1.27556 3.06218
3.96926 -1.68133 3.0999999
4.1637902 -1.1742001 3.0999999
4.0528002 -2.0066299 3.0999999
3.9986501 -1.89083 3.0999999
4.1757302 -1.80099 3.0999999
4.026 -1.14055 3.06218
4.2267499 -1.54658 3.06218
4.12147 -1.31312 3.06218
4.1374898 -2.03862 3.0999999
4.0797901 -1.84094 3.0999999
3.9720399 -2.13148 3.06218
3.97858 -2.0613501 3.06218
4.2017398 -1.92505 3.0999999
4.20365 -1.93504 3.0999999
4.1405001 -1.72614 3.0999999
4.2217999 -1.33211 3.06218
4.2567301 -1.59319 3.06218
4.2150302 -1.15267 3.06218
4.2592702 -1.93125 3.0999999
4.1852498 -2.11692 3.06218
3.96789 -1.47639 3.0999999
4.2374001 -1.93195 3.0999999
4.0494099 -1.90802 3.0999999
4.0274 -1.65711 3.06218
4.24822 -1.73147 3.06218
4.1069198 -1.54992 3.06218
3.99739 -1.79855 3.0999999
4.16922 -2.00086 3.0999999
4.1546302 -1.31364 3.06218
3.9913299 -1.65121 3.0999999
4.2711 -1.42484 3.06218
4.22925 -1.6862 3.06218
4.0394502 -1.97022 3.0999999
3.9774599 -1.83978 3.06218
4.1095099 -1.3308001 3.06218
4.0494099 -1.90802 3.0999999
4.2227101 -1.24072 3.0999999
4.2459402 -1.3362401 3.06218
4.0647898 -1.29328 3.06218
4.1821699 -2.01122 3.06218
4.0194898 -1.89676 3.06218
4.1740899 -1.97948 3.06218
4.2285199 -1.14293 3.06218
4.24928 -1.76827 3.0999999
4.2362199 -2.0862 3.0999999
4.2077498 -1.51512 3.06218
4.04461 -1.261 3.0999999
4.1756902 -2.0599599 3.0999999
4.27775 -1.4258 3.0999999
4.1005802 -1.5355099 3.06218
4.2185402 -1.37088 3.0999999
3.9665401 -1.2739201 3.07249
4.1904898 -1.5184799 3.0999999
4.14009 -1.675 3.0999999
4.12357 -1.98664 3.0999999
4.0832701 -1.77385 3.06218
4.2761898 -1.54721 3.0999999
4.23207 -1.49922 3.0999999
4.0710602 -1.33654 3.06218
4.1907501 -1.8499399 3.06218
4.1596498 -1.77835 3.06218
3.9737 -1.92224 3.0999999
4.2460198 -2.0346899 3.06218
4.23663 -1.65623 3.0999999
4.2820802 -1.59012 3.0999999
4.21947 -1.28597 3.0999999
4.0415201 -1.18582 3.06218
3.98716 -1.48164 3.06218
4.2000999 -1.7095 3.06218
4.2178702 -2.09425 3.06218
4.0651999 -1.66255 3.06218
4.2846599 -2.04304 3.0999999
4.0806599 -1.19998 3.0999999
3.9758301 -1.99542 3.0999999
3.9665401 -1.14784 3.07742
4.0563502 -1.7188801 3.0999999
4.15727 -1.91264 3.06218
4.03297 -1.89182 3.06218
4.1619 -1.88451 3.0999999
4.12293 -2.0913401 3.0999999
4.2066598 -1.25228 3.0999999
3.9665401 -2.00263 3.0861299
4.1010399 -1.74288 3.0999999
4.2095599 -2.0738599 3.06218
4.0885401 -1.31945 3.06218
4.2302799 -1.27019 3.06218
4.03793 -1.57315 3.0999999
4.0935202 -1.18353 3.06218
4.1547599 -1.95752 3.06218
4.0908399 -1.56394 3.0999999
4.1371002 -1.87991 3.0999999
3.9665401 -2.12185 3.07885
4.0081701 -1.93455 3.06218
4.1614399 -1.30423 3.0999999
4.1956501 -1.55062 3.06218
3.97633 -1.94769 3.06218
4.2221599 -1.83323 3.0999999
3.9665401 -1.56917 3.0767601
4.0712099 -1.99301 3.0999999
4.1015 -1.19424 3.0999999
4.2076702 -1.60615 3.0999999
4.1825199 -1.68582 3.06218
4.2505698 -2.07531 3.0999999
4.0687599 -1.23076 3.0999999
4.20293 -1.39868 3.0999999
4.2258401 -1.25571 3.06218
4.28479 -1.50354 3.0999999
4.0374498 -1.80958 3.06218
3.9807799 -1.21242 3.0999999
3.97208 -1.52249 3.0999999
3.9890399 -1.55725 3.0999999
4.0219202 -1.34787 3.0999999
4.2615299 -1.81136 3.0999999
3.97451 -1.74517 3.0999999
4.0468402 -1.82951 3.0999999
4.0012102 -2.06916 3.06218
4.1796498 -1.76309 3.06218
3.9765401 -1.9045 3.0999999
4.2615199 -1.82985 3.0999999
3.9665401 -2.01401 3.08621
4.1736102 -1.5110199 3.0999999
4.2491202 -1.41912 3.0999999
4.21347 -1.74953 3.06218
4.0980902 -1.28434 3.0999999
4.0590401 -1.99131 3.06218
4.0679002 -1.2600501 3.0999999
4.2432599 -1.20976 3.0999999
4.2079401 -1.94057 3.0999999
4.0598998 -1.24971 3.0999999
4.0381699 -1.8840801 3.06218
4.1302199 -1.72127 3.06218
3.9665401 -2.0957899 3.0882299
4.1072302 -1.59035 3.0999999
4.0185099 -1.63029 3.0999999
4.2184401 -1.66053 3.0999999
4.0468402 -1.82951 3.0999999
4.1687799 -1.53407 3.06218
4.2179999 -1.84991 3.0999999
4.2792802 -1.49617 3.06218
4.2003198 -1.87216 3.06218
3.9665401 -1.84419 3.08413
4.0696201 -1.30867 3.06218
4.20963 -1.3190399 3.06218
4.1255898 -1.22534 3.0999999
3.9761701 -1.65491 3.0999999
4.2424402 -1.6475199 3.06218
4.0508099 -1.62994 3.0999999
3.9946499 -1.97381 3.06218
4.2439599 -1.6522599 3.06218
4.1568298 -1.694 3.06218
4.25772 -1.6442699 3.06218
4.03195 -1.8282501 3.06218
3.9665401 -1.71978 3.0704899
4.0474801 -1.17343 3.0999999
4.0321298 -1.5505 3.06218
4.0880699 -1.82759 3.06218
4.1743202 -1.9482501 3.06218
4.1279202 -1.58237 3.0999999
4.2350502 -1.67626 3.06218
4.0463099 -1.61639 3.06218
3.98001 -1.57235 3.0999999
4.2796402 -1.90727 3.0999999
4.1199198 -2.0534699 3.06218
4.2486501 -1.69118 3.06218
4.17625 -1.50431 3.06218
4.1200399 -1.9118 3.0999999
4.2008801 -2.09009 3.0999999
4.1073799 -1.86682 3.0999999
4.2357402 -1.2543499 3.0999999
4.2350898 -2.0938799 3.0999999
4.2539301 -2.0021901 3.0999999
4.1170201 -1.6303 3.0999999
4.1324301 -1.70078 3.0999999
4.01018 -1.29662 3.0999999
4.11797 -1.18176 3.0999999
4.0339198 -1.19461 3.0999999
3.96823 -1.18066 3.06218
4.0647898 -1.29328 3.06218
3.9712901 -2.09376 3.0999999
4.0988302 -1.56029 3.06218
4.0273199 -1.61336 3.06218
4.16502 -2.12836 3.06218
4.13765 -1.1592 3.06218
4.0442901 -1.94935 3.06218
4.14115 -1.5664999 3.0999999
3.9665401 -1.14784 3.07742
4.0185699 -1.90729 3.06218
4.25315 -1.23576 3.0999999
4.2792802 -1.49617 3.06218
3.9665401 -1.95862 3.0923901
4.1052899 -1.60291 3.06218
3.9705601 -1.96349 3.0999999
3.96808 -1.6398 3.06218
4.2650599 -1.85552 3.06218
4.1794901 -1.9828399 3.0999999
4.0756898 -1.7729599 3.0999999
4.2308402 -2.0316601 3.06218
4.2711 -1.42484 3.06218
4.2123399 -1.46999 3.0999999
4.28301 -1.40335 3.06218
4.2678299 -2.05863 3.0999999
4.0557299 -1.72638 3.06218
4.0736399 -1.74164 3.06218
4.2519398 -1.63587 3.0999999
4.04461 -1.261 3.0999999
3.9762101 -1.60645 3.0999999
4.19243 -1.95786 3.06218
4.0009899 -1.83345 3.06218
4.2803702 -2.1192501 3.06218
4.2564001 -1.97219 3.0999999
4.13238 -1.80001 3.06218
4.0194898 -1.89676 3.06218
4.0379 -2.02425 3.06218
3.9908199 -1.98138 3.06218
4.2811799 -1.66977 3.06218
3.9665401 -1.89369 3.0738299
4.0376101 -1.73549 3.0999999
4.2560601 -1.62464 3.0999999
4.13238 -1.80001 3.06218
4.1106601 -1.93214 3.0999999
4.27531 -1.27817 3.06218
4.2093501 -1.7318799 3.0999999
4.2557702 -2.1183801 3.06218
4.2184401 -1.66053 3.0999999
4.0471201 -1.69881 3.06218
4.2185302 -1.68165 3.0999999
4.1860199 -1.8951 3.0999999
4.0394502 -1.97022 3.0999999
4.19382 -1.31252 3.06218
4.2539301 -2.0021901 3.0999999
4.0601501 -1.18169 3.0999999
4.15136 -1.34043 3.06218
4.10323 -2.1120501 3.06218
3.9665401 -1.27481 3.08934
4.1394801 -1.8587 3.0999999
4.1348801 -1.2558 3.06218
4.0374298 -2.0044701 3.06218
3.98311 -1.35563 3.0999999
4.1593199 -2.0413799 3.06218
4.2539601 -2.09639 3.06218
4.0120802 -1.80277 3.0999999
4.2196698 -1.14999 3.06218
4.2302799 -1.27019 3.06218
4.0592599 -2.0548699 3.06218
4.0597401 -1.88573 3.06218
4.2241502 -1.28183 3.06218
4.1548901 -1.34136 3.0999999
4.0422502 -1.72641 3.06218
4.1682801 -2.08497 3.06218
4.0963001 -1.7193 3.0999999
4.1132102 -1.76448 3.06218
4.0120802 -1.80277 3.0999999
4.2430401 -1.19662 3.0999999
3.97364 -1.9132 3.06218
4.2122598 -1.53721 3.0999999
4.18051 -2.03215 3.0999999
4.0763102 -1.6197799 3.0999999
4.0316601 -2.0132799 3.0999999
4.09378 -1.57547 3.0999999
4.0921798 -1.97869 3.0999999
4.2690101 -2.0682499 3.0999999
3.9786 -1.72835 3.06218
4.27987 -1.13833 3.0999999
4.2412701 -1.59017 3.0999999
4.23803 -2.0324099 3.06218
4.1054902 -1.54094 3.0999999
3.9725599 -1.61554 3.06218
4.1789899 -1.35388 3.0999999
4.1520801 -1.2273999 3.0999999
4.1683998 -1.94361 3.0999999
3.9665401 -1.88343 3.07813
4.1512399 -1.1892101 3.06218
3.97633 -1.94769 3.06218
4.1979599 -1.8777601 3.0999999
4.1766801 -1.7901 3.0999999
4.2132602 -1.21664 3.0999999
4.18048 -1.87737 3.06218
4.07551 -1.30643 3.06218
4.1248002 -1.30255 3.0999999
4.0903502 -1.69381 3.06218
4.1440902 -1.61227 3.06218
4.1255898 -1.22534 3.0999999
4.1579199 -2.0553401 3.06218
4.1825199 -1.68582 3.06218
4.0678701 -1.8933901 3.0999999
3.98739 -1.26411 3.06218
4.0932999 -1.30135 3.06218
4.0528998 -1.62981 3.0999999
4.2470198 -1.5804 3.06218
4.2522702 -2.0729301 3.0999999
4.2615299 -1.81136 3.0999999
4.0065498 -1.24103 3.06218
4.0973701 -1.91925 3.06218
4.2211499 -1.69636 3.0999999
4.2650399 -2.0383301 3.06218
4.1484299 -1.17688 3.06218
4.2814898 -2.05652 3.0999999
4.0917201 -1.98772 3.0999999
4.0792599 -1.1801 3.06218
4.05687 -1.87731 3.06218
4.0878901 -1.7871701 3.06218
4.13765 -1.1592 3.06218
4.1922998 -1.69912 3.0999999
4.1375699 -1.77946 3.0999999
4.2374001 -1.93195 3.0999999
4.2182202 -1.3482701 3.0999999
4.2530298 -1.32654 3.06218
3.9786 -1.72835 3.06218
4.2312498 -1.69007 3.0999999
4.1197901 -1.63076 3.0999999
4.1587701 -1.9802901 3.0999999
4.0237999 -1.26869 3.0999999
4.0622101 -1.8829401 3.06218
4.2488298 -2.0637901 3.0999999
4.11625 -1.67061 3.0999999
4.2104802 -1.66274 3.06218
4.2227101 -1.24072 3.0999999
4.1718502 -1.54129 3.06218
3.98469 -1.89853 3.0999999
4.17694 -0.23841199 3.06218
4.0025101 -1.0985301 3.0999999
4.1433802 -1.02359 3.06218
4.19065 -0.68371499 3.06218
4.0348802 -1.00109 3.0999999
4.1817598 -0.47941199 3.06218
4.18997 -0.546148 3.06218
4.2012401 -0.680076 3.06218
4.0205898 -0.14006899 3.06218
4.12679 -0.89782703 3.06218
4.1265202 -1.11344 3.0999999
4.0180202 -0.214497 3.06218
4.02386 -0.13677201 3.06218
4.26542 -0.66410297 3.06218
4.09588 -0.66945302 3.0999999
4.1345301 -0.197147 3.0999999
4.1114101 -0.184168 3.06218
4.09376 -0.66802198 3.06218
4.2792802 -0.60768402 3.0999999
3.9665401 -0.411437 3.07794
4.1671801 -0.451197 3.06218
4.0531702 -0.37325501 3.0999999
4.2312298 -0.67417401 3.06218
4.1338 -0.482135 3.06218
4.0427699 -1.09653 3.06218
4.1391201 -0.92380798 3.0999999
4.1725402 -0.907906 3.0999999
4.1276002 -0.99047703 3.0999999
4.2271399 -0.67974699 3.06218
3.9816101 -1.11499 3.06218
4.20858 -0.69367301 3.06218
4.151 -0.41686201 3.0999999
4.0707202 -0.36483601 3.0999999
4.2854199 -0.86220998 3.0999999
4.1139498 -0.38549301 3.0999999
4.17418 -0.74293101 3.06218
4.25595 -0.17900001 3.06218
4.0033798 -0.45367199 3.06218
4.0153399 -0.95758998 3.06218
4.0700898 -0.99208802 3.0999999
4.2193398 -1.07305 3.0999999
3.99736 -1.0994 3.06218
4.171 -0.277383 3.06218
4.0601201 -0.36611101 3.06218
3.9665401 -0.91353202 3.06457
4.15762 -0.84079403 3.06218
3.9757099 -1.09226 3.0999999
4.2329001 -0.486011 3.06218
4.2101798 -0.15161 3.06218
4.1570702 -0.400527 3.0999999
4.1714702 -0.85385102 3.0999999
4.00313 -1.1282001 3.0999999
4.0535302 -0.18152399 3.0999999
4.25 -0.38412601 3.06218
4.0268602 -0.23875301 3.06218
4.1401701 -0.35741699 3.06218
4.2577701 -0.95091802 3.0999999
4.0714798 -1.01684 3.06218
4.19557 -0.66313702 3.0999999
4.2821698 -0.84548497 3.06218
4.1568198 -0.543688 3.0999999
3.97769 -1.1091 3.06218
4.1837201 -0.727516 3.0999999
4.0205898 -0.14006899 3.06218
3.9665401 -1.09741 3.0648899
4.1998 -0.66017503 3.0999999
3.9665401 -0.93730599 3.0963399
4.2171698 -0.72226 3.06218
3.98405 -0.42982799 3.0999999
4.2169399 -0.198357 3.06218
4.1942902 -0.392883 3.0999999
4.1345301 -0.197147 3.0999999
3.99088 -0.36999899 3.0999999
4.07622 -0.905904 3.06218
4.09588 -0.66945302 3.0999999
4.10566 -0.241826 3.06218
4.0062199 -0.24252801 3.0999999
4.0482402 -0.45084 3.06218
4.28583 -0.66657698 3.0999999
4.0497398 -0.364977 3.0999999
4.2062702 -0.53690797 3.06218
4.2314 -0.655213 3.06218
4.0437999 -0.99187797 3.06218
4.1554899 -0.255622 3.0999999
4.2353702 -0.524894 3.06218
4.0370202 -0.22692101 3.0999999
4.20471 -0.25465101 3.06218
4.0788698 -1.02791 3.0999999
4.15762 -0.84079403 3.06218
4.1837902 -1.1269799 3.06218
4.01162 -1.1259201 3.0999999
4.2048702 -0.59672099 3.06218
4.10041 -0.20943201 3.06218
4.0692 -0.30899 3.06218
4.0731602 -0.92283201 3.06218
4.15662 -0.72709501 3.0999999
4.2271199 -0.442009 3.06218
4.1581202 -0.29487601 3.0999999
4.2000799 -0.16574199 3.0999999
4.0064301 -0.93605101 3.06218
4.15628 -0.25115901 3.06218
4.2571201 -0.91040897 3.06218
4.0883198 -0.437774 3.06218
4.2202702 -0.88570201 3.0999999
4.0184102 -1.1269701 3.06218
4.0559402 -0.248377 3.06218
4.1640401 -1.0078599 3.06218
4.1135402 -1.09798 3.06218
4.2326698 -0.98211002 3.0999999
4.2073998 -0.54766798 3.0999999
3.9665401 -0.47123599 3.0785799
4.1114602 -0.92146897 3.06218
4.2755299 -0.95482397 3.06218
4.2604198 -0.83044499 3.0999999
4.0613999 -0.18595301 3.0999999
4.0062499 -0.44271699 3.06218
4.2074399 -0.162284 3.0999999
4.2263398 -0.83896297 3.06218
4.1942902 -0.392883 3.0999999
4.0921898 -0.973584 3.06218
4.1292 -1.0752 3.0999999
4.2567 -0.42459601 3.0999999
4.0359302 -0.26185599 3.06218
4.1543298 -1.06315 3.0999999
4.1876001 -0.72894001 3.06218
4.0269198 -1.00108 3.0999999
3.9665401 -0.411437 3.07794
4.0214801 -0.956572 3.0999999
4.2536702 -0.177196 3.0999999
4.0788598 -1.02344 3.06218
4.0254598 -0.30377501 3.0999999
4.1903801 -0.44551301 3.06218
4.1495299 -0.91220403 3.0999999
4.0011401 -0.68976903 3.0999999
4.1266198 -1.12894 3.06218
3.9863901 -0.226399 3.0999999
3.98243 -0.145399 3.0999999
4.0829401 -1.0122 3.06218
3.9753599 -0.91065198 3.06218
4.0889201 -0.90705401 3.0999999
4.0731602 -0.92283201 3.06218
4.25246 -0.92563099 3.06218
4.2091098 -0.35229599 3.0999999
4.1301498 -0.88236898 3.06218
4.2024102 -0.75624299 3.06218
4.2012401 -0.680076 3.06218
4.2371001 -0.52982098 3.0999999
4.0421801 -0.413699 3.0999999
3.9665401 -0.98768097 3.0623
4.1725202 -0.250662 3.06218
4.0247502 -0.22045401 3.06218
4.1265898 -0.42007101 3.06218
4.2639198 -0.49206501 3.06218
3.9995699 -1.04863 3.06218
4.2282901 -0.980838 3.0999999
4.1148601 -1.03905 3.0999999
3.98263 -1.12867 3.06218
4.08149 -0.151536 3.06218
4.05128 -0.214324 3.06218
4.2091699 -0.755077 3.06218
4.05722 -1.07259 3.0999999
3.9980199 -0.99597502 3.06218
3.9888599 -0.450683 3.0999999
4.0378599 -1.016 3.06218
4.2231598 -0.60140097 3.0999999
4.0349498 -1.10829 3.0999999
3.96767 -0.16800199 3.06218
4.0359302 -0.26185599 3.06218
4.2092299 -0.97200698 3.0999999
4.1013999 -1.08318 3.06218
4.2153101 -1.0291899 3.06218
3.9665401 -0.352442 3.0744901
4.2321 -0.44965899 3.0999999
4.0363302 -0.277376 3.0999999
4.1669998 -0.71621197 3.06218
4.1770701 -0.609433 3.0999999
4.1019902 -0.30302799 3.06218
4.1771002 -0.44628099 3.0999999
4.0605798 -1.11772 3.0999999
3.9665401 -1.10015 3.0968699
4.1433802 -0.17080501 3.06218
3.98738 -0.212615 3.0999999
4.1935 -0.56730002 3.06218
4.2561798 -0.47804901 3.06218
4.0263801 -0.223911 3.0999999
4.1837902 -1.1269799 3.06218
3.9665401 -0.34330201 3.0694499
4.0803199 -0.227254 3.06218
4.1705999 -1.04468 3.0999999
4.1901498 -0.67120099 3.0999999
4.2175398 -0.231922 3.06218
4.1879702 -0.58959699 3.06218
4.1669998 -0.71621197 3.06218
4.0412002 -0.70291698 3.0999999
4.1715598 -0.38578701 3.0999999
4.1556201 -0.60616899 3.06218
3.98544 -0.297602 3.06218
4.0740399 -0.70505601 3.06218
3.99736 -1.0994 3.06218
4.2240801 -0.962098 3.06218
4.1336098 -0.64595699 3.0999999
4.2294402 -0.47953299 3.0999999
4.2271399 -0.67974699 3.06218
3.9665401 -0.64864802 3.06268
4.1725402 -0.907906 3.0999999
4.0044899 -0.711914 3.06218
4.1325698 -0.27462 3.0999999
3.9927599 -0.226005 3.0999999
4.2561698 -0.80445701 3.06218
4.0578899 -0.239812 3.06218
4.1606998 -0.94115198 3.06218
4.2585502 -0.39693299 3.06218
4.16504 -0.97182798 3.0999999
3.9665401 -0.70564401 3.06494
4.1658201 -0.40261999 3.06218
4.0631399 -0.312637 3.06218
4.0486302 -0.72144502 3.06218
4.1773 -0.16193999 3.06218
4.2702298 -0.58046597 3.06218
3.98615 -0.93321198 3.06218
4.2241302 -0.186584 3.06218
3.99229 -0.30739799 3.0999999
4.0251002 -0.67782199 3.06218
4.02249 -0.26068401 3.06218
4.2282901 -0.980838 3.0999999
4.04392 -0.167881 3.06218
3.99177 -0.37456599 3.06218
4.1424499 -0.28873 3.06218
4.1630001 -0.300715 3.06218
4.0441999 -0.69698298 3.0999999
4.0827398 -0.70347297 3.06218
4.0097799 -0.16874699 3.0999999
3.9665401 -0.93730599 3.0963399
4.1876001 -0.72894001 3.06218
4.2210898 -0.78392899 3.06218
4.19522 -0.46576601 3.06218
4.17905 -0.283654 3.06218
3.9853699 -0.64897299 3.0999999
4.20858 -0.69367301 3.06218
4.27426 -0.92927802 3.06218
4.0162702 -0.179224 3.0999999
4.1258602 -0.343826 3.06218
4.1010799 -1.0623699 3.06218
4.1230202 -0.36747101 3.06218
3.99913 -0.18255401 3.0999999
4.2102199 -0.96633101 3.0999999
4.0166602 -1.09987 3.0999999
4.13553 -0.40485999 3.0999999
4.2285199 -0.152473 3.06218
4.2684798 -0.820517 3.0999999
3.9774301 -1.07903 3.06218
3.9864399 -0.43267 3.06218
4.02912 -0.33857599 3.06218
4.0335002 -0.95716798 3.0999999
3.9711201 -0.46889901 3.06218
4.1954799 -0.97865701 3.0999999
4.2037902 -0.96074098 3.0999999
4.1441998 -1.04653 3.06218
4.1526299 -1.03306 3.0999999
4.0906801 -0.191232 3.06218
3.9665401 -0.42013299 3.0855801
4.0246801 -0.96228802 3.06218
4.16784 -0.464625 3.06218
4.1504798 -0.87920803 3.06218
4.2673101 -0.93886203 3.0999999
4.2494402 -0.97955197 3.06218
4.21984 -1.07437 3.0999999
4.15903 -0.517865 3.0999999
4.1890802 -0.36354601 3.0999999
4.0002398 -0.72061098 3.06218
4.0676398 -0.96415502 3.06218
4.1564298 -0.604653 3.0999999
4.1199799 -0.89648902 3.06218
4.0378599 -1.016 3.06218
4.0335002 -0.95716798 3.0999999
4.1339002 -1.09008 3.0999999
4.1079001 -0.93127298 3.0999999
4.16504 -0.97182798 3.0999999
4.1147399 -0.40977201 3.0999999
4.0943799 -0.14651801 3.0999999
4.2708602 -0.44588399 3.0999999
4.2352901 -0.133762 3.0999999
4.1167798 -0.43687499 3.06218
4.1692901 -0.582057 3.0999999
4.1296401 -0.89970499 3.06218
4.24125 -0.79163301 3.06218
4.21135 -0.86969 3.06218
4.1684299 -0.83202899 3.0999999
3.9665401 -1.03564 3.06341
4.2111502 -0.56210297 3.06218
4.0191598 -0.44209099 3.0999999
4.2642798 -0.59618098 3.06218
4.2854199 -0.86220998 3.0999999
4.16961 -0.82099003 3.06218
3.9665401 -0.675699 3.0717299
4.25595 -0.17900001 3.06218
4.2153101 -1.0291899 3.06218
4.1379499 -1.00608 3.0999999
4.1893802 -0.97408098 3.0999999
4.0320101 -0.340675 3.06218
4.2501798 -0.76902997 3.0999999
4.1937799 -0.58495998 3.06218
4.0985298 -0.216535 3.0999999
4.2139201 -0.77996302 3.06218
4.2390299 -0.835621 3.0999999
3.9665401 -0.70564401 3.06494
4.0507798 -0.98371398 3.06218
4.0939202 -0.390627 3.06218
4.2062402 -0.37663999 3.0999999
4.2352901 -0.133762 3.0999999
4.10537 -0.30916399 3.06218
3.9774201 -0.97468901 3.06218
4.0718899 -1.01995 3.0999999
4.0785198 -1.10833 3.0999999
4.0774598 -0.45045799 3.06218
4.04948 -0.70840502 3.0999999
4.02386 -0.13677201 3.06218
4.12116 -1.1179399 3.0999999
4.1716599 -0.70586002 3.0999999
3.9792099 -0.72309798 3.0999999
4.1673999 -1.06753 3.0999999
4.2148299 -0.41573101 3.06218
4.0693002 -0.97503197 3.0999999
4.2615399 -0.62187302 3.0999999
3.97383 -0.373386 3.06218
4.0501099 -0.14012399 3.06218
4.1319098 -1.07781 3.06218
4.0360899 -0.199311 3.06218
4.15238 -0.96108401 3.0999999
4.1845102 -0.63868302 3.06218
3.9665401 -0.961945 3.09657
4.23281 -0.62518001 3.06218
4.1904202 -0.178019 3.06218
4.2263999 -1.06473 3.06218
3.9665401 -0.96110201 3.0762
4.0883198 -0.437774 3.06218
4.2407899 -0.85306001 3.06218
3.9665401 -0.628546 3.08301
4.1353302 -0.64003599 3.0999999
4.2346902 -0.58916497 3.06218
4.1777201 -0.44864899 3.0999999
4.09093 -0.38142401 3.0999999
4.1785798 -0.67791498 3.0999999
3.9665401 -0.30405301 3.0952201
4.2163401 -0.93181598 3.06218
4.1270199 -0.90285897 3.06218
4.1837802 -0.25547799 3.0999999
4.1736598 -0.82336402 3.06218
3.9753001 -1.01903 3.06218
3.9665401 -0.95709997 3.0982399
4.0346298 -1.02428 3.06218
4.24616 -0.63738298 3.06218
4.2431302 -0.53699601 3.06218
4.1271701 -0.68242002 3.06218
4.1265001 -0.455861 3.06218
3.9971001 -0.442186 3.06218
4.1121602 -0.71706897 3.06218
4.1108599 -0.72238803 3.06218
4.1943498 -1.02037 3.0999999
4.25949 -0.568165 3.06218
3.9665401 -0.187501 3.0734799
4.2128601 -0.74076402 3.06218
4.2577701 -0.95091802 3.0999999
4.198 -0.68110698 3.0999999
4.07968 -0.19408099 3.06218
4.09376 -0.66802198 3.06218
4.1129799 -0.66036999 3.0999999
4.1515098 -0.99655598 3.0999999
4.1437302 -1.08521 3.06218
4.2280898 -0.72118402 3.06218
4.2596102 -0.68212801 3.06218
4.0700898 -1.08437 3.06218
4.04392 -0.167881 3.06218
4.1167798 -0.43687499 3.06218
4.1205802 -0.374134 3.0999999
4.20327 -0.87046897 3.06218
4.1539402 -0.73919201 3.06218
4.1570401 -0.52330101 3.0999999
4.0678501 -0.97545499 3.06218
4.0903502 -1.09905 3.0999999
4.0191598 -0.44209099 3.0999999
4.0219698 -1.09726 3.0999999
3.9665401 -0.232793 3.07266
3.96961 -0.37149799 3.06218
4.1724901 -0.56502301 3.06218
4.1988802 -0.50431699 3.06218
3.9870501 -0.33047101 3.06218
4.2673101 -0.93886203 3.0999999
3.9665401 -0.212753 3.0968699
4.0785699 -0.37787801 3.06218
3.9805801 -0.46176299 3.0999999
4.1339002 -1.09008 3.0999999
4.1135402 -1.09798 3.06218
3.9665401 -0.447393 3.0875299
4.1610098 -0.774113 3.0999999
