# .PCD v0.7 - Point Cloud Data file format
VERSION 0.7
FIELDS x y z
SIZE 4 4 4
TYPE F F F
COUNT 1 1 1
WIDTH 280
HEIGHT 1
VIEWPOINT 0 0 0 1 0 0 0
POINTS 280
DATA ascii
-1.46258 -0.87827301 0.31768301
-1.46574 -0.88042599 0.292063
-1.30222 -0.76476997 0.31058601
-1.30893 -0.76476997 0.333363
1.07402 -0.14131901 0.152909
1.07402 -0.16103201 0.179419
1.07402 -0.169846 0.159704
1.64288 -0.79330498 0.35791799
1.5584 -0.79330498 0.166031
1.59349 -0.79330498 0.40501499
1.39535 -0.79330498 0.38767201
1.38482 -0.79330498 0.40282699
1.5007401 -0.79330498 0.398067
1.7322299 -0.79330498 0.40766001
1.6781 -0.65851098 0.431604
1.55186 -0.79330498 0.39096999
1.73383 -0.79330498 0.421067
1.5981899 -0.65851098 0.33917201
1.54765 -0.65851098 0.29146299
1.77384 -0.79330498 0.29367399
1.48379 -0.79330498 0.1982
1.4436899 -0.65851098 0.29225999
1.35912 -0.79330498 0.24085601
1.5625499 -0.79330498 0.246097
1.59544 -0.65851098 0.16046201
1.39403 -0.65851098 0.44237801
1.69502 -0.65851098 0.47613299
1.48575 -0.79330498 0.34623599
1.41883 -0.65851098 0.40832901
1.63061 -0.79330498 0.437426
1.62691 -0.79330498 0.31109399
1.78249 -0.79330498 0.31530699
1.32019 -0.65851098 0.40235099
1.4664299 -0.79330498 0.31667501
1.88807 -0.65851098 0.24750701
1.64004 -0.79330498 0.413295
1.76728 -0.79330498 0.35554299
1.8642 -0.79330498 0.30982599
1.63482 -0.65851098 0.106484
1.53344 -0.65851098 0.18404099
1.4972399 -0.79330498 0.383183
1.8926899 -0.65851098 0.242442
1.74454 -0.79330498 0.180897
1.57858 -0.79330498 0.450526
1.7833 -0.79330498 0.45871699
1.43164 -0.65851098 0.37017101
1.34043 -0.65851098 0.313023
1.6502 -0.79330498 0.47031501
1.63922 -0.79330498 0.41114399
1.40309 -0.65851098 0.26083699
1.6207401 -0.79330498 0.22578301
1.89458 -0.79330498 0.45744899
1.7036099 -0.79330498 0.31738001
1.54558 -0.65851098 0.302596
1.50644 -0.65851098 0.17976201
1.32838 -0.65851098 0.37351301
1.3448499 -0.65851098 0.34946701
1.60894 -0.79330498 0.46853399
1.43558 -0.79330498 0.23038401
1.42514 -0.65851098 0.34680301
1.48198 -0.65851098 0.35976201
1.82233 -0.79330498 0.48820001
1.48269 -0.79330498 0.140432
1.56435 -0.79330498 0.28596699
1.68338 -0.79330498 0.47836301
1.60894 -0.79330498 0.46853399
1.8757499 -0.65851098 0.307836
1.59047 -0.79330498 0.45582801
1.93406 -0.65851098 0.419604
1.40841 -0.79330498 0.121554
1.57302 -0.65851098 0.22587
1.43164 -0.65851098 0.37017101
1.54474 -0.65851098 0.27799201
1.55291 -0.79330498 0.43839499
1.95116 -0.65851098 0.35396001
1.51272 -0.79330498 0.124621
1.53526 -0.79330498 0.222196
1.67926 -0.79330498 0.470323
1.41819 -0.79330498 0.339086
1.6142 -0.65851098 0.365569
1.66589 -0.65851098 0.39286801
1.9404 -0.65851098 0.36806101
1.3464299 -0.65851098 0.34103599
1.6467201 -0.65851098 0.454411
1.4236701 -0.79330498 0.158384
1.64064 -0.65851098 0.116407
1.55112 -0.65851098 0.124516
1.35822 -0.79330498 0.41789901
1.6377 -0.65851098 0.134056
1.94765 -0.65851098 0.33694401
1.4993401 -0.79330498 0.254154
1.63862 -0.79330498 0.29028299
1.44664 -0.65851098 0.25875601
1.40566 -0.79330498 0.13519201
1.40785 -0.65851098 0.25227201
1.32868 -0.65851098 0.380898
1.64017 -0.79330498 0.39840001
1.40361 -0.65851098 0.27476001
1.91109 -0.65851098 0.34627801
1.78766 -0.79330498 0.37768099
1.79642 -0.79330498 0.34787801
1.56507 -0.79330498 0.31766099
1.51522 -0.79330498 0.26384801
1.93406 -0.65851098 0.419604
1.58847 -0.79330498 0.41178101
1.62728 -0.79330498 0.448035
1.6242599 -0.79330498 0.43334299
1.59544 -0.65851098 0.16046201
1.33009 -0.79330498 0.24118701
1.37605 -0.79330498 0.27654001
1.5625499 -0.79330498 0.246097
1.29561 -0.79330498 0.25584501
1.34559 -0.79330498 0.30115801
1.58389 -0.79330498 0.218344
1.52956 -0.79330498 0.39309299
1.37717 -0.79330498 0.355194
1.58033 -0.65851098 0.18193001
1.63108 -0.65851098 0.14285
1.8637201 -0.65851098 0.164437
1.54461 -0.65851098 0.122184
1.69233 -0.79330498 0.33428499
1.56259 -0.65851098 0.36453
1.75308 -0.79330498 0.208878
1.6502 -0.79330498 0.47031501
1.35059 -0.65851098 0.37334201
1.39088 -0.65851098 0.44613799
1.94581 -0.65851098 0.380427
1.54081 -0.65851098 0.087441303
1.51256 -0.79330498 0.449343
1.52272 -0.79330498 0.37546301
1.4106899 -0.65851098 0.324985
1.79642 -0.79330498 0.34787801
1.53184 -0.65851098 0.138965
1.32838 -0.65851098 0.37351301
1.79275 -0.79330498 0.19609
1.53303 -0.65851098 0.29514799
1.31013 -0.65851098 0.369939
1.50429 -0.65851098 0.223664
1.85832 -0.65851098 0.35525101
1.35602 -0.79330498 0.21917
1.61694 -0.79330498 0.41531199
1.58847 -0.79330498 0.41178101
1.85971 -0.65851098 0.18183801
1.63061 -0.79330498 0.437426
1.7182699 -0.79330498 0.20478199
1.51033 -0.65851098 0.114009
1.88131 -0.65851098 0.37932599
1.70989 -0.79330498 0.33422601
1.80279 -0.79330498 0.24229001
1.36001 -0.79330498 0.30618
1.79136 -0.79330498 0.271622
1.61324 -0.79330498 0.284361
1.41747 -0.65851098 0.32154301
1.88088 -0.65851098 0.236747
1.83452 -0.79330498 0.37578699
1.80831 -0.79330498 0.29214099
1.51712 -0.79330498 0.337708
1.55439 -0.65851098 0.182328
1.63152 -0.65851098 0.39983401
1.49872 -0.79330498 0.107634
1.46091 -0.79330498 0.36957499
1.45937 -0.65851098 0.227763
1.79961 -0.79330498 0.31728101
1.7739201 -0.79330498 0.42390499
1.8076 -0.79330498 0.169541
1.49323 -0.65851098 0.31787899
1.4137599 -0.79330498 0.30344301
1.43329 -0.79330498 0.26397699
1.54765 -0.65851098 0.29146299
1.87449 -0.79330498 0.40010601
1.51958 -0.79330498 0.449305
1.74274 -0.79330498 0.397448
1.48253 -0.65851098 0.257411
1.53785 -0.79330498 0.408678
1.93081 -0.65851098 0.30415401
1.6207401 -0.79330498 0.22578301
2.52723 -0.65851098 0.25096199
2.5587699 -0.79330498 0.26931801
2.46071 -0.65851098 0.28817901
2.29526 -0.65851098 0.298695
2.4392099 -0.65851098 0.131798
2.5757401 -0.65851098 0.416361
2.5682001 -0.79330498 0.32461101
2.42891 -0.65851098 0.30696601
2.6424999 -0.65851098 0.38567901
2.6071701 -0.65851098 0.40604901
2.5267401 -0.65851098 0.242248
2.34586 -0.65851098 0.25947499
2.45785 -0.65851098 0.23886099
2.4082799 -0.79330498 0.34734699
2.42381 -0.79330498 0.352157
2.4660399 -0.65851098 0.36804
2.5190499 -0.65851098 0.270154
2.4077001 -0.65851098 0.162075
2.6298599 -0.65851098 0.34444699
2.5757401 -0.65851098 0.416361
2.44241 -0.79330498 0.30618101
2.33883 -0.65851098 0.31372201
2.4059401 -0.65851098 0.224768
2.39642 -0.65851098 0.142133
2.5639801 -0.65851098 0.336155
2.57953 -0.79330498 0.357014
2.5218501 -0.79330498 0.32007599
2.41522 -0.65851098 0.33442101
2.5610099 -0.79330498 0.38063201
2.4944799 -0.65851098 0.381982
2.54268 -0.65851098 0.40118799
2.54421 -0.79330498 0.29963201
2.4858999 -0.65851098 0.182592
2.5020299 -0.65851098 0.33179599
2.5171499 -0.79330498 0.29809999
2.6424999 -0.65851098 0.38567901
2.4665899 -0.65851098 0.390861
2.4160199 -0.65851098 0.239292
2.4337201 -0.65851098 0.36134401
2.4389601 -0.65851098 0.155607
2.58411 -0.79330498 0.369726
2.4331601 -0.65851098 0.36504799
2.5767701 -0.65851098 0.22065599
2.3843801 -0.65851098 0.238672
2.4072199 -0.79330498 0.35374501
2.5826299 -0.65851098 0.25656199
2.5883501 -0.65851098 0.37726799
2.49862 -0.65851098 0.34564501
2.37587 -0.65851098 0.357651
2.46175 -0.79330498 0.31305999
2.3543701 -0.79330498 0.33044699
2.5917399 -0.65851098 0.347314
2.6298599 -0.65851098 0.34444699
2.43943 -0.79330498 0.31975999
2.54421 -0.79330498 0.29963201
4.2193298 -3.1122 2.13974
4.1684198 -3.1122 2.3655601
4.2660899 -3.1122 2.21418
4.2241001 -3.1122 2.22247
4.2253499 -3.1122 2.1789999
4.19842 -3.1122 2.3904099
4.1543999 -3.1122 2.20889
4.1988301 -3.1122 2.22878
4.26404 -3.1122 2.33848
4.1350799 -3.1122 2.3227899
4.16992 -3.1122 2.2200799
4.1684198 -3.1122 2.3655601
4.2253499 -3.1122 2.1789999
4.2806602 -3.1122 2.3402801
4.1340699 -3.1122 2.30072
4.2557001 -3.1122 2.1349599
4.1546302 -3.1122 2.29145
4.2055802 -3.1122 2.3816199
4.19665 -3.1122 2.37836
4.2627001 -3.1122 2.36711
4.1918998 -3.1122 2.3594601
4.18537 -3.1122 2.21807
4.2121701 -3.1122 2.37816
4.2018099 -3.1122 2.2867301
4.1623802 -3.1122 2.3271999
4.1381698 -3.1122 2.2953401
4.16676 -3.1122 2.35934
4.2330899 -3.1122 2.32481
4.1422701 -3.1122 2.2687099
4.2330899 -3.1122 2.32481
4.1108999 -3.1122 2.2091501
4.1224499 -3.1122 2.33604
4.1837602 -3.1122 2.2278399
4.13379 -3.1122 2.30196
4.16921 -3.1122 2.1661201
4.1468601 -3.1122 2.29146
4.1781001 -3.1122 2.1951001
4.1324 -3.1122 2.35186
4.1867599 -3.1122 2.2407501
4.1834402 -3.1122 2.26491
4.27071 -3.1122 2.27162
4.1403298 -3.1122 2.29422
4.2470598 -3.1122 2.2409799
4.2367902 -3.1122 2.1389201
4.1340699 -3.1122 2.30072
4.19665 -3.1122 2.37836
4.1774201 -3.1122 2.2377701
4.2367902 -3.1122 2.1389201
4.19665 -3.1122 2.37836
