# .PCD v0.7 - Point Cloud Data file format
VERSION 0.7
FIELDS x y z
SIZE 4 4 4
TYPE F F F
COUNT 1 1 1
WIDTH 1472
HEIGHT 1
VIEWPOINT 0 0 0 1 0 0 0
POINTS 1472
DATA ascii
3.47159 -1.26026 -5.5087199e-08
4.0230498 -1.37707 0.0378168
4.1626401 -1.87253 0.0378168
3.54476 -1.1679 -5.1049899e-08
3.3964701 -1.8865401 -8.2462499e-08
3.29515 -1.51513 -6.6227898e-08
3.8403699 -1.21523 -5.31188e-08
3.4125299 -1.40214 -6.1288901e-08
3.9658501 -1.48663 -6.4981997e-08
3.9182601 -1.1813999 -5.16401e-08
4.27246 -1.3975199 0.0378168
3.9665401 -1.723 0.036780499
3.62046 -2.1268699 -9.2967497e-08
4.0504799 -1.40198 0.0378168
3.51757 -2.10975 -9.2219402e-08
3.9904101 -2.04217 0.0378168
3.43121 -1.3415999 -5.8642499e-08
3.4856501 -2.11166 -9.2302699e-08
3.6918199 -1.23243 -5.38706e-08
3.3085699 -1.17302 -5.1273901e-08
3.75862 -1.68734 -7.3755203e-08
3.2930701 -1.33823 -5.8495502e-08
4.17941 -1.83232 0.0378168
3.3085699 -1.17302 -5.1273901e-08
4.0647998 -1.90221 0.0378168
3.6370201 -1.49107 -6.5175897e-08
3.6224 -1.75889 -7.6882998e-08
4.2019701 -1.81862 0.0378168
4.2695198 -1.97225 0.0378168
3.7574201 -1.6871099 -7.3745298e-08
3.96538 -1.85849 -8.12366e-08
3.6900899 -1.99828 -8.7346898e-08
3.9646699 -1.17466 -5.1345701e-08
3.4971199 -1.44188 -6.30261e-08
4.1339502 -1.7749799 0.0378168
3.4718001 -1.33584 -5.83908e-08
3.9389901 -1.9235801 -8.4081798e-08
3.8264101 -1.63157 -7.1317601e-08
3.3231599 -1.58859 -6.9438997e-08
3.6412499 -1.54343 -6.7465002e-08
3.55356 -1.14741 -5.0154402e-08
3.34973 -1.96953 -8.6089898e-08
4.1466599 -1.96206 0.0378168
3.9665401 -1.38903 0.0202884
3.3852501 -2.0302899 -8.87458e-08
4.0061898 -1.15083 0.0378168
3.41836 -1.16702 -5.10116e-08
4.1916099 -1.27047 0.0378168
3.7169399 -1.1577899 -5.06083e-08
4.1549902 -1.19591 0.0378168
4.2530198 -1.4035 0.0378168
3.9661701 -1.6384799 -7.1619702e-08
3.5123501 -2.1173501 -9.2551602e-08
4.2140398 -1.65522 0.0378168
4.0762601 -1.9639601 0.0378168
3.3610201 -2.0450799 -8.93926e-08
3.7946301 -1.7187001 -7.5125897e-08
3.75071 -2.1098299 -9.2222599e-08
4.1834102 -1.95151 0.0378168
3.7539101 -1.39652 -6.1043302e-08
3.4254799 -1.50003 -6.5567697e-08
4.0722899 -1.2896 0.0378168
3.3684199 -1.2041 -5.2632199e-08
3.9665401 -1.2114 0.028077001
4.2683101 -1.15882 0.0378168
3.3794301 -2.04599 -8.9432199e-08
3.7416899 -1.60543 -7.0174998e-08
3.94117 -1.5650001 -6.8407701e-08
3.9177101 -1.706 -7.4571197e-08
3.6003399 -1.56634 -6.8466498e-08
3.4118199 -1.81227 -7.9216299e-08
3.71788 -1.14695 -5.01343e-08
3.7023699 -2.0692999 -9.0451202e-08
4.1215901 -2.08957 0.0378168
3.6376801 -1.7641701 -7.7113398e-08
3.68765 -1.58609 -6.9329403e-08
3.49874 -1.31062 -5.7288499e-08
3.98981 -1.80256 0.0378168
4.28262 -1.7640899 0.0378168
4.0307102 -1.94073 0.0378168
3.5803001 -1.48368 -6.4852998e-08
4.1394901 -1.84699 0.0378168
3.89748 -1.5927401 -6.96201e-08
4.0685902 -1.39808 0.0378168
3.94104 -1.28392 -5.61215e-08
3.86904 -1.71667 -7.5037399e-08
3.4839001 -1.54773 -6.7652699e-08
3.5503399 -1.53901 -6.7271699e-08
3.4516101 -1.65247 -7.2230897e-08
3.91693 -1.7254601 -7.5421603e-08
3.50176 -1.69376 -7.4035903e-08
3.6370201 -1.49107 -6.5175897e-08
4.1307602 -1.8101 0.0378168
4.1122999 -2.07126 0.0378168
3.4976201 -1.65521 -7.2350801e-08
4.2549 -1.57742 0.0378168
3.92959 -1.6907099 -7.3902498e-08
3.7175901 -1.6418101 -7.1765299e-08
3.4117301 -2.1018701 -9.1875002e-08
3.3745201 -1.28025 -5.59609e-08
4.0949702 -1.25625 0.0378168
3.3417101 -1.62685 -7.1111003e-08
3.3576 -1.8426501 -8.0543998e-08
3.97912 -1.91177 0.0378168
3.6408601 -1.3200999 -5.77027e-08
3.7755799 -1.50717 -6.5879703e-08
3.4737899 -1.15335 -5.0413899e-08
4.1889801 -1.27881 0.0378168
3.2904401 -1.18361 -5.1736901e-08
4.2184801 -1.99871 0.0378168
4.05937 -1.23439 0.0378168
3.8113799 -1.37184 -5.9964499e-08
3.6301899 -1.21452 -5.3087799e-08
3.3018501 -1.3539799 -5.9183701e-08
4.0033798 -2.0833399 0.0378168
4.0936198 -1.38952 0.0378168
3.5572801 -1.3582 -5.9368201e-08
3.6763 -1.33596 -5.83962e-08
4.2102499 -1.24983 0.0378168
3.9565401 -1.7119499 -7.48311e-08
4.13802 -2.0534599 0.0378168
3.7103701 -1.43423 -6.2691399e-08
3.8083799 -2.0369401 -8.9036597e-08
4.1193199 -1.71593 0.0378168
3.5011499 -1.79073 -7.8274503e-08
3.4976201 -1.65521 -7.2350801e-08
3.93451 -1.95996 -8.5671999e-08
3.78912 -1.4974999 -6.5457101e-08
3.8494 -2.11496 -9.2447102e-08
3.3394401 -1.1332099 -4.95336e-08
3.43255 -1.1859601 -5.1839301e-08
3.87907 -2.0868001 -9.1216002e-08
3.89118 -1.66233 -7.2662097e-08
3.5970199 -2.0925801 -9.1468799e-08
4.10707 -1.76609 0.0378168
4.1683698 -1.16004 0.0378168
3.30179 -1.58246 -6.9170902e-08
3.9210801 -1.5044301 -6.5760098e-08
3.71788 -1.14695 -5.01343e-08
3.34427 -1.62342 -7.0961498e-08
3.81846 -1.1524301 -5.03737e-08
4.0439601 -1.3136801 0.0378168
3.3096001 -1.82999 -7.9990699e-08
4.1348 -2.1036 0.0378168
3.7479 -1.13551 -4.9634298e-08
3.97806 -1.9317 0.0378168
4.0595798 -1.3907 0.0378168
3.73066 -1.49107 -6.5176003e-08
4.0409398 -1.69137 0.0378168
3.3947201 -1.44362 -6.31021e-08
3.68454 -1.6559 -7.2381198e-08
4.27033 -2.1005099 0.0378168
4.2346501 -1.28835 0.0378168
3.31722 -1.14572 -5.00807e-08
3.6767001 -1.72374 -7.53463e-08
3.46152 -1.39499 -6.0976603e-08
4.0711999 -1.9527 0.0378168
3.48402 -1.27974 -5.59385e-08
4.2339602 -1.18813 0.0378168
4.0796399 -1.75078 0.0378168
3.9665401 -1.723 0.036780499
3.4324999 -1.45522 -6.36092e-08
3.9665401 -1.49282 0.0153163
3.41101 -2.09694 -9.1659302e-08
4.1860499 -1.94767 0.0378168
3.98016 -1.9169 0.0378168
4.2704 -1.62992 0.0378168
3.9851301 -1.39777 0.0378168
3.3745401 -1.5793 -6.90329e-08
3.7809899 -1.45925 -6.37854e-08
3.4616699 -2.11849 -9.2601198e-08
3.6760399 -1.33891 -5.8525099e-08
3.9597499 -1.25718 -5.4952402e-08
3.2980399 -1.36796 -5.9794701e-08
3.3954 -1.59162 -6.9571101e-08
3.50142 -1.3225 -5.7807998e-08
3.97438 -1.7319601 0.0378168
4.0812101 -1.21997 0.0378168
3.37116 -1.57617 -6.8895901e-08
4.24898 -1.65037 0.0378168
4.2361598 -1.23327 0.0378168
3.5983801 -1.8082401 -7.9040099e-08
4.27246 -1.3975199 0.0378168
3.64323 -1.16429 -5.0892201e-08
4.164 -1.84533 0.0378168
4.2298698 -1.31071 0.0378168
4.03056 -1.25685 0.0378168
3.3546801 -1.30822 -5.7183701e-08
3.9403701 -2.12028 -9.26795e-08
3.8645799 -1.22817 -5.3684602e-08
4.1238399 -1.1667 0.0378168
3.63557 -1.78057 -7.78304e-08
3.37746 -1.36375 -5.9610699e-08
4.0405002 -1.1447001 0.0378168
3.48088 -1.2388 -5.41493e-08
4.01231 -1.19201 0.0378168
3.3219399 -1.17158 -5.1211e-08
3.2948101 -1.88395 -8.2349104e-08
3.8254001 -1.35124 -5.9064199e-08
3.9175301 -1.97086 -8.6148098e-08
3.6944799 -1.26442 -5.5268899e-08
3.44626 -1.79835 -7.8607499e-08
3.9841399 -1.4579901 0.0378168
4.0482101 -1.2238801 0.0378168
3.9848199 -2.0669999 0.0378168
3.8041101 -2.06323 -9.01858e-08
3.4590099 -1.44393 -6.3115799e-08
3.6557701 -1.57679 -6.8923001e-08
4.2455602 -1.2867 0.0378168
3.7498701 -1.33939 -5.8546199e-08
3.95121 -1.99518 -8.7211198e-08
3.8494201 -1.30428 -5.7011398e-08
4.15591 -1.98853 0.0378168
4.20718 -1.23291 0.0378168
3.4649401 -1.15871 -5.0648499e-08
3.7846701 -1.68348 -7.3586698e-08
3.9336901 -1.7939301 -7.8414601e-08
3.3544199 -2.0950301 -9.1576098e-08
3.70327 -1.30997 -5.7260301e-08
4.18993 -1.8861099 0.0378168
3.8176601 -2.09027 -9.1367703e-08
3.9761701 -1.26379 0.0378168
4.0292501 -1.3019201 0.0378168
3.9665401 -1.23369 0.0124187
3.87521 -1.3362401 -5.8408599e-08
3.5769801 -1.5878299 -6.9405601e-08
3.92822 -2.0708799 -9.0520103e-08
3.65906 -1.45968 -6.3803903e-08
3.2877901 -1.9905601 -8.7009198e-08
3.8157599 -1.60708 -7.0247197e-08
3.4058599 -2.1188099 -9.2615302e-08
4.25493 -1.2309 0.0378168
3.75685 -2.1224501 -9.27743e-08
4.0033398 -1.83319 0.0378168
3.471 -1.27511 -5.57365e-08
3.9165299 -1.99711 -8.7295597e-08
3.79462 -2.0390401 -8.9128498e-08
3.8374701 -1.71181 -7.4825103e-08
4.2033801 -1.39343 0.0378168
3.8980899 -1.14915 -5.02307e-08
3.6293399 -1.77837 -7.7734498e-08
4.0253801 -1.94077 0.0378168
3.9665401 -1.90247 0.023558199
3.3938 -1.83461 -8.01925e-08
4.0991302 -1.3463399 0.0378168
4.1641002 -1.27215 0.0378168
3.99264 -1.99913 0.0378168
3.7893701 -1.50764 -6.5900302e-08
4.1148901 -2.0871799 0.0378168
3.97382 -1.30931 0.0378168
3.33114 -1.75034 -7.6509203e-08
3.9315801 -1.7352901 -7.5851197e-08
3.4095099 -2.0359299 -8.89925e-08
3.98945 -1.95751 0.0378168
4.1145902 -1.97702 0.0378168
3.7131901 -1.42566 -6.2317099e-08
3.9208801 -2.0571899 -8.9921699e-08
4.1707602 -1.1753 0.0378168
3.90065 -1.45389 -6.35509e-08
4.21731 -1.74248 0.0378168
3.95871 -1.27391 -5.5683898e-08
3.31336 -1.13263 -4.9508301e-08
3.8045001 -2.0710499 -9.05275e-08
3.6189101 -1.7410001 -7.6100697e-08
4.2412701 -1.92575 0.0378168
3.3294599 -1.41706 -6.1941101e-08
3.6961701 -1.5431 -6.7450301e-08
4.2588801 -1.94462 0.0378168
3.8476701 -1.5884399 -6.9432197e-08
3.39116 -1.61585 -7.0630399e-08
3.9665401 -1.47206 0.0043621198
3.72527 -1.28926 -5.63548e-08
3.4629099 -1.33592 -5.83942e-08
3.5913899 -1.38822 -6.0680598e-08
3.6312399 -1.79241 -7.8348201e-08
4.0650101 -1.18444 0.0378168
3.3273399 -2.05901 -9.00014e-08
4.16925 -1.7295099 0.0378168
3.5768399 -1.72278 -7.5304499e-08
3.80427 -2.0543699 -8.9798597e-08
3.31461 -1.2437201 -5.4364101e-08
3.7105899 -1.5451601 -6.7540299e-08
3.4574699 -1.77767 -7.7703703e-08
3.5755301 -1.61699 -7.0680201e-08
3.8231399 -1.67535 -7.3231298e-08
3.3608201 -1.80258 -7.8792603e-08
3.6621599 -1.20907 -5.28496e-08
4.01053 -1.77452 0.0378168
3.9665401 -1.22575 0.0277033
4.1798 -1.85356 0.0378168
4.2431202 -1.7269 0.0378168
4.04182 -1.41905 0.0378168
4.02 -1.2561899 0.0378168
3.8571401 -2.1015301 -9.1860002e-08
3.37184 -1.944 -8.4973998e-08
3.3770299 -1.78506 -7.8026602e-08
3.7984099 -1.47824 -6.46152e-08
3.57812 -1.42275 -6.2189997e-08
4.1013198 -1.38187 0.0378168
3.9705601 -1.66934 0.0378168
4.21522 -1.36013 0.0378168
3.9665401 -1.75354 0.032648601
4.17487 -1.18235 0.0378168
3.5546601 -1.73176 -7.5696903e-08
4.25316 -1.4557199 0.0378168
3.3048999 -1.4327 -6.2624501e-08
4.2662902 -1.22492 0.0378168
3.4741001 -1.82663 -7.9843701e-08
4.2554598 -1.24623 0.0378168
3.4488499 -1.64109 -7.1733702e-08
3.9360199 -2.1078 -9.2134101e-08
3.8740101 -1.21297 -5.3020202e-08
3.9816201 -1.73033 0.0378168
4.1753602 -1.27179 0.0378168
3.41274 -1.46224 -6.3915998e-08
3.9411299 -1.23524 -5.3993599e-08
4.2077599 -1.7656699 0.0378168
3.31955 -1.3775001 -6.0211804e-08
4.2595801 -1.3319 0.0378168
3.8610101 -1.39166 -6.08307e-08
4.02353 -1.86616 0.0378168
4.2445302 -1.56486 0.0378168
4.2769098 -1.16357 0.0378168
3.7407601 -1.43118 -6.25583e-08
3.32428 -1.8765301 -8.2024897e-08
3.6094201 -1.6266201 -7.1101297e-08
3.9930601 -1.19239 0.0378168
3.97192 -1.92308 0.0378168
3.4089799 -2.0913899 -9.1416503e-08
3.56745 -1.4131401 -6.1769903e-08
4.0212302 -2.1120901 0.0378168
3.3048999 -1.4327 -6.2624501e-08
3.64063 -1.17577 -5.1394e-08
4.2348199 -1.6171401 0.0378168
3.28755 -1.36874 -5.9829098e-08
4.0608602 -1.85594 0.0378168
4.2786698 -1.8343 0.0378168
3.87907 -2.0868001 -9.1216002e-08
3.7595401 -2.0806 -9.0944901e-08
3.50612 -1.7412 -7.6109799e-08
3.6069801 -1.65246 -7.2230698e-08
4.27528 -1.47937 0.0378168
4.0082798 -2.0937099 0.0378168
3.8039501 -1.58815 -6.9419499e-08
4.1357098 -1.20149 0.0378168
3.53496 -1.56197 -6.8275199e-08
3.3809299 -1.5502599 -6.7763402e-08
3.5347199 -2.11026 -9.22414e-08
3.83196 -1.67772 -7.3334597e-08
3.7667201 -1.17603 -5.1405401e-08
3.5655401 -1.43262 -6.2621197e-08
3.4976201 -1.65521 -7.2350801e-08
3.47504 -1.48791 -6.5038201e-08
4.2807698 -1.80791 0.0378168
3.3635299 -2.02847 -8.8666503e-08
3.7876401 -1.32639 -5.79778e-08
3.82424 -1.58806 -6.9415798e-08
3.4662001 -1.38591 -6.0579303e-08
3.56446 -1.79469 -7.8447698e-08
3.3219399 -1.17158 -5.1211e-08
3.9335201 -1.4008501 -6.1232598e-08
3.8217299 -1.4738899 -6.4425201e-08
3.4333899 -1.47508 -6.4477398e-08
3.99647 -1.2467901 0.0378168
4.2412701 -1.92575 0.0378168
3.81567 -1.249 -5.4594999e-08
3.8273301 -1.62264 -7.0927101e-08
3.6493299 -1.2156399 -5.3136901e-08
3.82635 -2.13065 -9.3132897e-08
3.4082401 -1.47428 -6.4442098e-08
3.78353 -1.4028701 -6.1320897e-08
3.85252 -1.3277 -5.8034999e-08
3.69855 -1.17317 -5.1280601e-08
3.9927299 -1.99019 0.0378168
3.58551 -1.28552 -5.61914e-08
3.8485501 -1.33408 -5.8314001e-08
3.7792301 -1.67767 -7.33327e-08
3.5755899 -1.67085 -7.3034698e-08
4.13416 -1.7297699 0.0378168
3.63695 -1.23158 -5.3833698e-08
4.0511799 -1.26546 0.0378168
3.87708 -1.5106699 -6.6032698e-08
4.2348199 -1.6171401 0.0378168
3.8886099 -1.19933 -5.2424099e-08
3.58097 -1.19297 -5.21459e-08
3.4539599 -1.46007 -6.3821098e-08
3.64078 -1.4297301 -6.2494898e-08
3.28952 -1.2908 -5.6422198e-08
3.9433 -2.0650799 -9.0266496e-08
3.60302 -1.82276 -7.9674798e-08
3.6452301 -2.1307001 -9.3135e-08
3.7086 -1.57927 -6.9031401e-08
3.43082 -2.0929899 -9.1486498e-08
3.6064501 -1.41844 -6.2001597e-08
4.1852598 -1.82003 0.0378168
4.1761498 -1.39641 0.0378168
3.6794901 -1.54536 -6.7549301e-08
3.9179699 -1.66746 -7.2886202e-08
3.96012 -1.5757101 -6.8875998e-08
3.97349 -1.27716 0.0378168
3.7855301 -1.1761301 -5.1409799e-08
3.4039199 -1.26789 -5.5420799e-08
4.1019301 -1.26738 0.0378168
3.9255199 -1.13835 -4.9758601e-08
3.6408601 -1.3200999 -5.77027e-08
3.75489 -1.33759 -5.84674e-08
4.1852999 -1.98359 0.0378168
4.2294102 -1.9143699 0.0378168
3.3104601 -1.1973799 -5.2338802e-08
3.4627099 -1.52828 -6.6802798e-08
3.4804001 -1.80599 -7.8941703e-08
4.0988598 -1.7026401 0.0378168
4.13555 -1.8248301 0.0378168
3.85355 -1.34166 -5.8645298e-08
3.7500401 -2.02596 -8.8556597e-08
3.8176601 -2.09027 -9.1367703e-08
3.8838401 -1.58701 -6.9370003e-08
4.0229902 -1.1830699 0.0378168
3.48331 -1.75763 -7.6827703e-08
4.2695198 -1.97225 0.0378168
3.3406999 -1.29544 -5.6625002e-08
3.33479 -1.30002 -5.68253e-08
3.98259 -1.4747 0.0378168
4.26125 -1.71909 0.0378168
3.82266 -2.12904 -9.3062397e-08
3.3517301 -1.57985 -6.9056902e-08
4.00033 -1.19441 0.0378168
3.9414999 -1.27514 -5.5737502e-08
3.66504 -1.46654 -6.41041e-08
3.7237799 -1.60173 -7.0013201e-08
3.3002801 -1.46474 -6.40254e-08
4.2390199 -2.0704999 0.0378168
3.6398301 -1.42407 -6.2247601e-08
3.96088 -1.95754 -8.5565901e-08
3.50176 -1.69376 -7.4035903e-08
3.77455 -2.05369 -8.9768697e-08
3.4718499 -1.5775 -6.8954101e-08
3.9497499 -1.47997 -6.4690802e-08
3.53689 -1.19842 -5.2383999e-08
4.2602801 -1.68445 0.0378168
3.7011001 -1.43028 -6.25189e-08
3.5381601 -1.33567 -5.83833e-08
3.92959 -1.6907099 -7.3902498e-08
3.4590001 -1.7309 -7.5659202e-08
3.9939699 -1.33561 0.0378168
3.3446801 -1.50353 -6.5720897e-08
3.3170099 -1.36237 -5.95507e-08
3.8758099 -1.13363 -4.95519e-08
3.68765 -1.58609 -6.9329403e-08
3.83303 -1.39903 -6.1152903e-08
3.9665401 -1.97112 0.00083037099
3.89744 -1.49542 -6.53664e-08
3.86992 -1.62586 -7.1067802e-08
3.3071799 -1.73002 -7.5621003e-08
3.7556801 -1.60562 -7.0183098e-08
3.3307099 -1.97022 -8.6120103e-08
3.87521 -1.3362401 -5.8408599e-08
3.6746199 -1.24984 -5.4631901e-08
3.87514 -2.1191499 -9.2630302e-08
3.58073 -1.71155 -7.4813698e-08
3.5783501 -1.57786 -6.8969698e-08
3.67821 -1.37187 -5.99657e-08
3.7852299 -1.42733 -6.2389802e-08
3.51666 -1.76658 -7.7219099e-08
3.84763 -1.40386 -6.1363998e-08
3.2892101 -1.97773 -8.6448601e-08
3.5262201 -1.1976399 -5.2350099e-08
3.6249599 -2.06898 -9.0437403e-08
4.0347199 -1.3219399 0.0378168
3.7281401 -1.14519 -5.0057299e-08
3.55457 -1.6011 -6.9985603e-08
3.7621801 -1.49002 -6.51305e-08
3.8403699 -1.21523 -5.31188e-08
3.75984 -1.1528701 -5.0393002e-08
3.3531401 -1.19322 -5.21568e-08
3.5541999 -1.31086 -5.7298799e-08
4.0752201 -2.0229101 0.0378168
4.27777 -1.99113 0.0378168
4.2322698 -1.1828099 0.0378168
4.2224302 -2.0802801 0.0378168
4.1638699 -1.15732 0.0378168
3.94117 -1.5650001 -6.8407701e-08
3.9665401 -1.64113 0.029510399
4.1693702 -1.78117 0.0378168
3.75984 -1.1528701 -5.0393002e-08
3.5002999 -1.43654 -6.2792601e-08
3.4756701 -1.44432 -6.3132703e-08
3.93209 -1.50679 -6.5863198e-08
4.2460899 -1.76088 0.0378168
3.9665401 -1.2396801 0.0147758
3.9665401 -1.68822 0.017449399
3.28952 -1.2908 -5.6422198e-08
3.76704 -1.59984 -6.9930699e-08
3.97452 -1.88052 0.0378168
4.2509198 -1.44443 0.0378168
3.4612 -2.1199701 -9.2665999e-08
3.40592 -1.77819 -7.7726398e-08
3.9175301 -1.97086 -8.6148098e-08
3.3684199 -1.2041 -5.2632199e-08
4.0250301 -1.85674 0.0378168
3.9665401 -1.8853199 0.0171268
3.8677101 -1.58436 -6.92539e-08
4.0594401 -1.28959 0.0378168
3.96766 -1.69198 0.0378168
4.1343498 -1.14073 0.037816901
3.4540401 -1.16259 -5.0817999e-08
4.1455998 -1.93609 0.0378168
3.9813299 -1.27354 0.0378168
3.7660899 -1.3526599 -5.9125998e-08
4.0009799 -1.39072 0.0378168
3.7834201 -1.4788001 -6.4639998e-08
4.0351 -1.74309 0.0378168
4.0701499 -2.0973699 0.0378168
3.95733 -1.94213 -8.4892299e-08
3.7333801 -1.57217 -6.8720901e-08
3.9995201 -1.17852 0.0378168
3.5943699 -1.5160201 -6.6266701e-08
3.9872301 -1.3337801 0.0378168
4.2530198 -1.4035 0.0378168
4.2585101 -1.59832 0.0378168
3.9303401 -1.97791 -8.6456502e-08
3.9079399 -1.25081 -5.4674299e-08
3.9021399 -1.30847 -5.7194399e-08
3.77353 -1.59264 -6.9615702e-08
4.2282701 -1.37562 0.0378168
4.13416 -1.7297699 0.0378168
3.3373899 -1.5100501 -6.6005903e-08
3.6410899 -1.47517 -6.44811e-08
3.6640201 -1.67425 -7.3183301e-08
4.0262399 -1.4213901 0.0378168
3.36343 -1.87472 -8.1945799e-08
3.37573 -1.6341701 -7.1431302e-08
3.7393701 -1.32673 -5.7992501e-08
3.5441699 -1.6427701 -7.18072e-08
3.3682799 -1.91527 -8.3718497e-08
3.47679 -1.66847 -7.2930298e-08
4.20608 -1.24137 0.0378168
3.8659699 -1.20151 -5.25194e-08
3.9470799 -1.33942 -5.8547499e-08
3.68715 -1.1788 -5.1526399e-08
4.2322698 -1.1828099 0.0378168
4.1428699 -1.2983299 0.0378168
4.2485499 -1.3899 0.0378168
3.64078 -1.4297301 -6.2494898e-08
4.0395002 -1.23797 0.0378168
4.17489 -1.6941 0.0378168
3.6172099 -1.37799 -6.0233297e-08
3.6505699 -1.25103 -5.4683898e-08
3.3150699 -1.2009799 -5.2496201e-08
3.5662999 -1.71161 -7.4816199e-08
3.4458799 -1.76397 -7.71049e-08
4.2601399 -1.7372 0.0378168
3.7605801 -2.0780799 -9.0834902e-08
4.12114 -1.27435 0.0378168
3.37761 -1.50306 -6.57001e-08
3.5139699 -1.42706 -6.2378199e-08
3.91414 -1.42033 -6.2083998e-08
3.9665401 -1.8653899 0.0291568
4.0694499 -1.13775 0.0378168
3.8682401 -2.00087 -8.7459803e-08
3.3431799 -1.16391 -5.0875901e-08
3.8827701 -1.14502 -5.0049799e-08
4.0258899 -1.3245699 0.0378168
3.8231399 -1.67535 -7.3231298e-08
3.56323 -1.73985 -7.6050398e-08
3.9872301 -1.3337801 0.0378168
3.48563 -1.27115 -5.5563401e-08
3.9978199 -1.9299999 0.0378168
3.4012499 -1.60228 -7.0037103e-08
3.9604101 -1.42379 -6.2235102e-08
3.5148101 -2.12327 -9.2810303e-08
3.47 -1.6737 -7.31591e-08
3.39375 -2.0337901 -8.8898801e-08
3.8057201 -2.0818801 -9.1000899e-08
3.6657701 -1.75691 -7.6796503e-08
3.2995 -1.5821199 -6.9156101e-08
3.7834201 -1.4788001 -6.4639998e-08
3.3570099 -1.5175101 -6.6332099e-08
3.9553699 -1.1322401 -4.9491501e-08
3.5913501 -1.28662 -5.62395e-08
3.6245601 -1.37629 -6.0159003e-08
4.0697098 -1.82827 0.0378168
3.6879599 -1.36185 -5.95277e-08
3.3635299 -2.02847 -8.8666503e-08
4.1494899 -1.3938299 0.0378168
3.93208 -1.94862 -8.5176097e-08
3.51847 -1.2137001 -5.3052101e-08
3.72803 -2.0249 -8.8510397e-08
3.3568599 -1.1885 -5.19507e-08
3.30094 -1.7697001 -7.7355402e-08
3.8847301 -1.21664 -5.31805e-08
3.5072701 -1.64668 -7.1978199e-08
3.99772 -1.35469 0.0378168
4.2033501 -2.0438099 0.0378168
4.1880498 -2.10536 0.0378168
4.0135598 -1.97045 0.0378168
4.23387 -1.4505399 0.0378168
3.2973101 -1.7747101 -7.7574498e-08
3.3698299 -1.8234299 -7.9704101e-08
3.2904401 -1.18361 -5.1736901e-08
3.7828 -2.08636 -9.1196803e-08
3.79123 -1.17494 -5.1357699e-08
3.6117699 -1.42695 -6.2373502e-08
3.53017 -1.69538 -7.41069e-08
4.1740699 -1.36575 0.0378168
3.9665401 -1.38538 0.019149501
4.1329002 -2.0246899 0.0378168
4.0524402 -1.26904 0.0378168
3.37971 -1.5300699 -6.6880702e-08
3.8807499 -2.0509901 -8.9650598e-08
3.36887 -1.93691 -8.46643e-08
4.1718202 -1.38353 0.0378168
3.3534999 -1.58552 -6.9304697e-08
3.71103 -2.09863 -9.1733199e-08
3.6615 -1.62703 -7.1118997e-08
3.75809 -1.4254 -6.2305901e-08
3.8982301 -1.66429 -7.2747603e-08
3.6594501 -1.57425 -6.88119e-08
3.75685 -2.1224501 -9.27743e-08
3.35782 -1.56029 -6.8201899e-08
4.22228 -1.68418 0.0378168
3.7281401 -1.14519 -5.0057299e-08
3.5675499 -1.62586 -7.1068001e-08
4.2472901 -1.82263 0.0378168
3.3875899 -1.76594 -7.7190897e-08
3.59427 -1.51279 -6.6125601e-08
3.64974 -2.0543101 -8.9795897e-08
4.0373702 -1.96805 0.0378168
4.24301 -1.8953201 0.0378168
3.8022399 -2.12708 -9.2976997e-08
3.5462699 -1.2374099 -5.4088598e-08
3.6522901 -1.73586 -7.5876002e-08
4.2322698 -1.1828099 0.0378168
3.8089299 -1.13376 -4.9557901e-08
3.6818099 -1.60232 -7.00391e-08
4.2506099 -2.0476301 0.0378168
3.8614099 -1.17814 -5.14978e-08
3.87514 -2.1191499 -9.2630302e-08
4.1339502 -1.7749799 0.0378168
3.4082601 -1.74651 -7.63416e-08
3.7650001 -1.68793 -7.3781102e-08
4.1043801 -1.86771 0.0378168
4.1019301 -1.26738 0.0378168
3.3143699 -1.61904 -7.077e-08
3.4909699 -1.4863501 -6.4970003e-08
4.0299902 -2.0801799 0.0378168
4.1926198 -1.93905 0.0378168
3.7809999 -1.56336 -6.8336099e-08
3.82212 -2.0941801 -9.1538602e-08
3.9054599 -1.55047 -6.7772604e-08
3.36625 -1.49994 -6.5563903e-08
3.4254301 -1.26984 -5.5505801e-08
4.1044798 -1.24326 0.0378168
3.9042201 -1.2818 -5.60287e-08
3.5404799 -1.5957 -6.9749603e-08
3.64078 -1.4297301 -6.2494898e-08
3.6266201 -1.44157 -6.30125e-08
3.9665401 -1.78036 0.0070268
3.87605 -2.02004 -8.8298002e-08
3.57549 -1.47974 -6.4680997e-08
3.29723 -1.54326 -6.74573e-08
3.92031 -2.1124599 -9.2337601e-08
3.9038799 -1.23708 -5.4073901e-08
3.9665401 -1.79865 0.035560999
3.9816201 -1.73033 0.0378168
3.62867 -1.37431 -6.0072502e-08
3.9665401 -1.97049 0.0141133
3.3071799 -1.73002 -7.5621003e-08
4.2513199 -1.49558 0.0378168
3.88852 -2.1241901 -9.2850598e-08
3.68454 -1.6559 -7.2381198e-08
3.48736 -1.7965699 -7.8529702e-08
3.8147199 -1.6282901 -7.11741e-08
4.2214699 -1.40957 0.0378168
3.3712699 -1.32222 -5.77955e-08
3.4679799 -1.7424901 -7.6166103e-08
4.01231 -1.19201 0.0378168
3.6447699 -1.16904 -5.1100098e-08
3.6207299 -1.33876 -5.8518399e-08
4.1181598 -2.0770199 0.0378168
3.3074999 -1.56707 -6.8498203e-08
4.1329002 -2.0246899 0.0378168
3.9646699 -1.17466 -5.1345701e-08
3.3108301 -1.8637 -8.1464201e-08
3.6310799 -1.58792 -6.9409502e-08
3.4323599 -1.6368099 -7.1546602e-08
3.9175601 -1.16424 -5.0890002e-08
4.10677 -1.9046 0.0378168
3.7541101 -1.44996 -6.3379296e-08
3.74457 -1.26161 -5.5146401e-08
3.9665401 -2.0328801 0.0141567
4.23598 -2.0854499 0.0378168
3.2886701 -1.41478 -6.1841298e-08
3.4591701 -1.20797 -5.2801401e-08
3.37761 -1.50306 -6.57001e-08
3.9165299 -1.99711 -8.7295597e-08
3.579 -1.2383699 -5.4130499e-08
4.0618801 -1.27264 0.0378168
4.2165198 -1.72288 0.0378168
4.0692301 -1.9830101 0.0378168
3.9581499 -1.27837 -5.5878701e-08
3.7855301 -1.1761301 -5.1409799e-08
3.8516901 -1.50379 -6.5732401e-08
4.1055002 -1.7536 0.0378168
3.4398999 -1.31337 -5.7408901e-08
3.7526801 -1.55487 -6.7964798e-08
4.1115398 -1.8559099 0.0378168
3.8217599 -2.08796 -9.1266799e-08
4.1287799 -1.74868 0.0378168
4.0194402 -2.04636 0.0378168
3.8931501 -1.4924001 -6.5234403e-08
3.6493299 -1.2156399 -5.3136901e-08
3.9978199 -1.9299999 0.0378168
3.94765 -1.54101 -6.7358997e-08
3.9665401 -1.32638 0.0121606
3.98874 -2.12135 0.0378168
3.5658 -1.4661 -6.4084801e-08
3.97382 -1.30931 0.0378168
4.1127901 -1.73227 0.0378168
3.9128201 -1.31743 -5.7586298e-08
4.1626401 -1.87253 0.0378168
3.9597499 -1.25718 -5.4952402e-08
4.0608602 -1.85594 0.0378168
3.36887 -1.93691 -8.46643e-08
3.96597 -2.0594599 -9.0020897e-08
4.2505102 -1.77811 0.0378168
3.6817 -2.1118 -9.2309001e-08
3.6573999 -1.72826 -7.5543802e-08
3.5546601 -1.73176 -7.5696903e-08
3.7543199 -1.33734 -5.84565e-08
3.40802 -1.6505001 -7.2145099e-08
3.4737599 -1.6381299 -7.1604198e-08
3.5662999 -1.71161 -7.4816199e-08
4.1852899 -1.20453 0.0378168
4.14572 -1.38472 0.0378168
3.35923 -1.18838 -5.1945101e-08
3.9951701 -1.45057 0.0378168
4.2398601 -1.64021 0.0378168
3.59672 -1.38978 -6.0748697e-08
3.3025401 -2.1047599 -9.2001301e-08
3.92257 -1.13328 -4.9537e-08
3.5202601 -1.5572799 -6.8070001e-08
3.9423599 -1.79232 -7.8344002e-08
3.85182 -2.0530801 -8.9742201e-08
3.39801 -1.1990499 -5.2411799e-08
3.6750801 -2.0969601 -9.1660297e-08
3.7092299 -1.39802 -6.11088e-08
3.2930701 -1.33823 -5.8495502e-08
4.13695 -1.9351799 0.0378168
3.81673 -1.31011 -5.7266099e-08
4.1055002 -1.7536 0.0378168
3.82938 -1.40843 -6.1563703e-08
3.85041 -1.54161 -6.7385102e-08
3.84763 -1.40386 -6.1363998e-08
3.4019899 -1.39548 -6.0997998e-08
3.94455 -1.24463 -5.44042e-08
4.17941 -1.83232 0.0378168
3.9646699 -1.17466 -5.1345701e-08
3.7829599 -2.02811 -8.8650701e-08
4.1251898 -1.85769 0.0378168
3.9411299 -1.23524 -5.3993599e-08
3.8403699 -1.21523 -5.31188e-08
3.48174 -2.0980699 -9.1708898e-08
3.8515 -1.44901 -6.33379e-08
3.8187399 -1.3821 -6.0413001e-08
3.86763 -1.56695 -6.8492902e-08
4.2435799 -1.2369699 0.0378168
4.0692301 -1.9830101 0.0378168
3.9255199 -1.13835 -4.9758601e-08
3.88659 -2.1027701 -9.1914202e-08
3.52301 -1.55358 -6.7908701e-08
3.3673 -1.65467 -7.2327197e-08
3.6194999 -1.77897 -7.7760703e-08
3.72457 -1.4904 -6.51467e-08
3.6419899 -1.85888 -8.1253702e-08
4.23388 -1.7641701 0.0378168
4.0827398 -1.39984 0.0378168
3.8147199 -1.6282901 -7.11741e-08
4.2527599 -1.56875 0.0378168
4.0796399 -1.75078 0.0378168
3.3987501 -1.82933 -7.99619e-08
3.9414999 -1.27514 -5.5737502e-08
3.39837 -1.4865299 -6.4977499e-08
3.48563 -1.27115 -5.5563401e-08
4.1170702 -1.19648 0.0378168
3.67419 -1.75586 -7.6750403e-08
3.5824699 -1.32311 -5.7834601e-08
3.4763 -1.27346 -5.5664199e-08
3.7341001 -1.3212399 -5.7752601e-08
4.1192498 -1.92014 0.0378168
3.9665401 -1.38538 0.019149501
3.79497 -1.65275 -7.2243203e-08
3.8194301 -1.6203001 -7.0824903e-08
3.8132 -1.59666 -6.9791597e-08
4.0008998 -1.80302 0.0378168
3.69349 -1.20138 -5.2513599e-08
3.6993401 -1.6933 -7.4015901e-08
3.2962201 -1.93326 -8.4504599e-08
3.30442 -1.8535 -8.1018399e-08
4.0724401 -2.06091 0.0378168
4.0068102 -1.25131 0.0378168
4.2718601 -1.74429 0.0378168
3.2973001 -1.5700901 -6.86302e-08
3.3894801 -1.34311 -5.87088e-08
3.3540599 -1.63898 -7.1641203e-08
3.9665401 -1.723 0.036780499
3.87163 -1.32858 -5.8073699e-08
3.85671 -1.29906 -5.6783101e-08
3.96538 -1.85849 -8.12366e-08
3.3351901 -1.89308 -8.27485e-08
4.2301698 -1.3223701 0.0378168
3.35797 -1.65014 -7.2129303e-08
3.4254799 -1.50003 -6.5567697e-08
4.1344199 -2.1289599 0.0378168
3.5627 -1.49686 -6.5429397e-08
4.1278501 -1.25989 0.0378168
4.1761498 -1.39641 0.0378168
3.40926 -1.6095001 -7.0352897e-08
3.99086 -1.31284 0.0378168
4.0409398 -1.69137 0.0378168
3.6213901 -1.26033 -5.50903e-08
3.7852299 -1.42733 -6.2389802e-08
4.1988502 -1.93506 0.0378168
3.9532199 -1.48771 -6.5029099e-08
4.0685902 -1.39808 0.0378168
3.8571401 -2.1015301 -9.1860002e-08
3.5327101 -1.1936001 -5.2173501e-08
3.5971501 -1.21023 -5.2900401e-08
3.3902199 -1.9943399 -8.7174598e-08
3.4404299 -1.18393 -5.1750899e-08
3.3687 -1.6681 -7.2914197e-08
3.3568599 -1.1885 -5.19507e-08
3.95679 -1.42053 -6.2092901e-08
3.7514601 -1.20908 -5.2849899e-08
3.9665401 -1.17775 0.016493499
4.1666698 -1.1673501 0.0378168
3.96766 -1.69198 0.0378168
3.8922601 -1.1898201 -5.2008001e-08
3.5768499 -1.7771699 -7.7682103e-08
4.27492 -1.55818 0.0378168
3.9807899 -1.8510799 0.0378168
3.40592 -1.77819 -7.7726398e-08
3.7855301 -1.1761301 -5.1409799e-08
3.7578299 -1.58488 -6.9276702e-08
3.5399599 -2.1298001 -9.3095501e-08
4.1852899 -1.20453 0.0378168
4.0083299 -2.07406 0.0378168
3.3104601 -1.1973799 -5.2338802e-08
4.0400701 -1.34258 0.0378168
3.7959399 -1.36645 -5.9728798e-08
3.3392601 -1.97609 -8.6377e-08
3.6163599 -1.69857 -7.4246302e-08
3.4723499 -1.76449 -7.7127403e-08
4.1441798 -1.97261 0.0378168
3.3459799 -1.60426 -7.0123797e-08
4.23067 -1.38203 0.0378168
4.2398601 -1.64021 0.0378168
3.6250501 -1.7943701 -7.84338e-08
3.48088 -1.2388 -5.41493e-08
3.5355999 -1.8016599 -7.87524e-08
3.4755499 -1.32148 -5.7763199e-08
3.96088 -1.95754 -8.5565901e-08
3.43121 -1.3415999 -5.8642499e-08
3.43678 -1.72412 -7.5362998e-08
3.8667099 -1.19236 -5.2119301e-08
4.0532699 -1.15791 0.0378168
4.0503998 -1.76243 0.0378168
3.5072701 -1.64668 -7.1978199e-08
3.4949 -2.12708 -9.2976599e-08
4.20507 -1.7697901 0.0378168
4.2787399 -1.24213 0.0378168
3.6933 -1.49919 -6.5531097e-08
3.6424601 -1.73668 -7.5911998e-08
3.92031 -2.1124599 -9.2337601e-08
3.30179 -1.58246 -6.9170902e-08
3.7934799 -1.4620301 -6.3906597e-08
4.01334 -0.63034898 0.037816901
4.1778698 -1.0566601 0.037816901
3.9301 -0.33301601 -1.45565e-08
3.9871099 -0.27352199 0.037816901
3.6326499 -0.911578 -3.9846e-08
3.9019799 -0.461449 -2.01704e-08
4.01858 -0.66334099 0.037816901
3.42098 -0.51460701 -2.2494e-08
3.7509501 -1.0091799 -4.4112401e-08
4.2195702 -0.54402798 0.037816901
4.1104798 -0.51072401 0.037816901
3.8018501 -1.02003 -4.4586301e-08
3.7449701 -0.55994898 -2.44759e-08
4.06321 -0.997132 0.037816901
3.9665401 -0.207187 0.016093399
3.60005 -0.764126 -3.3400699e-08
3.7072999 -0.34399199 -1.50362e-08
3.6886599 -0.15685301 -6.8562001e-09
3.43593 -1.12271 -4.9074899e-08
3.6623299 -0.25880399 -1.13126e-08
3.7335701 -0.78609198 -3.4360902e-08
4.2610402 -0.28103301 0.037816901
4.0118198 -0.78677201 0.037816901
3.81493 -0.278606 -1.21782e-08
3.9040999 -0.645531 -2.82168e-08
3.73422 -0.27339599 -1.19504e-08
3.7543499 -0.155112 -6.7800698e-09
4.18993 -0.80071503 0.037816901
3.7770901 -1.11376 -4.8683699e-08
3.45279 -1.0247999 -4.47952e-08
4.0299301 -0.231373 0.037816901
3.9354899 -1.01668 -4.4440199e-08
3.8314099 -0.32828099 -1.43495e-08
4.2859001 -0.32761899 0.037816901
4.0541301 -0.227036 0.037816901
3.89094 -0.64659798 -2.8263401e-08
3.9497299 -0.333496 -1.45775e-08
3.4635 -0.90680599 -3.9637399e-08
3.6482601 -0.88248497 -3.8574299e-08
3.5316 -0.923962 -4.0387299e-08
3.9665401 -0.57624203 0.035554901
4.2427301 -0.34990299 0.037816901
3.8915801 -1.08053 -4.7230898e-08
3.9114399 -1.02354 -4.4740201e-08
4.2253299 -0.86770302 0.037816901
3.3361199 -0.48822099 -2.13406e-08
4.1542501 -0.87251502 0.037816901
4.1612 -0.164046 0.037816901
3.9665401 -0.33581799 0.018618099
3.53304 -0.94819802 -4.14467e-08
3.74809 -0.64752698 -2.83041e-08
4.0665498 -0.53405398 0.037816901
3.9355299 -0.246105 -1.07575e-08
4.05863 -0.98603898 0.037816901
3.40257 -0.91219097 -3.9872798e-08
3.7200501 -0.77084702 -3.3694501e-08
3.6384399 -1.11617 -4.8788799e-08
4.1784 -0.42812699 0.037816901
3.7801199 -0.58197302 -2.5438601e-08
3.8606701 -0.760472 -3.3241001e-08
4.1227598 -0.40457699 0.037816901
3.69276 -0.26304299 -1.14979e-08
4.1171598 -0.16949999 0.037816901
4.0748901 -0.921579 0.037816901
3.79509 -0.39272499 -1.71664e-08
3.36519 -0.86627698 -3.7865799e-08
4.27841 -0.55315298 0.037816901
3.73735 -0.66467899 -2.9053799e-08
3.9665401 -0.52701402 0.0100575
3.5992899 -0.845456 -3.6955701e-08
4.1547899 -0.51280499 0.037816901
3.8420899 -0.317029 -1.38577e-08
3.3369401 -0.567945 -2.48254e-08
3.7609601 -1.0695601 -4.6751499e-08
4.2160902 -0.989649 0.037816901
4.2487502 -0.69461 0.037816901
3.98472 -1.12121 0.0378168
3.7720399 -0.73144197 -3.1972e-08
3.6683099 -1.05643 -4.6177799e-08
3.30108 -1.11146 -4.8583001e-08
3.7341299 -0.25380599 -1.10941e-08
3.95328 -0.94733202 -4.14088e-08
3.44856 -1.00155 -4.3778702e-08
3.9665401 -0.40290999 0.0096247904
3.7767 -0.95163202 -4.1596799e-08
4.1919899 -0.31966501 0.037816901
3.38908 -1.1033601 -4.8229101e-08
3.9864099 -0.698991 0.037816901
3.93925 -0.68995798 -3.0158699e-08
4.2279201 -1.1239001 0.0378168
3.78562 -0.70517099 -3.0823699e-08
3.29231 -0.65448803 -2.86083e-08
3.8274901 -0.51518601 -2.25193e-08
3.85426 -0.953924 -4.1697e-08
3.3942201 -0.98506802 -4.30583e-08
3.6786599 -1.04313 -4.5596099e-08
3.9121499 -1.00014 -4.3717201e-08
4.13796 -0.63019502 0.037816901
3.40183 -1.08565 -4.7454801e-08
3.5063901 -0.41263101 -1.80365e-08
3.40084 -0.95978498 -4.19532e-08
4.1993599 -0.85021299 0.037816901
4.0675402 -1.03246 0.037816901
3.3501501 -0.82319802 -3.5982801e-08
4.27632 -1.1064301 0.037816901
3.9534299 -0.232613 -1.01677e-08
3.9665401 -0.99383801 0.0159024
4.2185502 -0.48316699 0.037816901
3.9604299 -0.148041 -6.4710299e-09
3.96593 -0.712861 -3.11599e-08
3.3253 -0.40159899 -1.7554299e-08
3.8568101 -0.745749 -3.2597399e-08
4.14008 -0.70645499 0.037816901
4.19346 -1.09328 0.037816901
4.2221699 -0.984649 0.037816901
3.8052499 -0.446338 -1.9509899e-08
4.20573 -0.41786399 0.037816901
4.0625901 -0.18755101 0.037816901
3.7786801 -0.78359598 -3.4251801e-08
3.3599601 -0.50251901 -2.1965599e-08
4.1100202 -1.0109299 0.037816901
4.0509901 -0.57480103 0.037816901
3.9995601 -0.76303297 0.037816901
3.9665401 -1.1279 0.017454701
4.1167498 -0.607894 0.037816901
3.3843999 -0.14345101 -6.2704002e-09
3.98295 -0.165216 0.037816901
3.76561 -0.56612301 -2.47458e-08
3.4681799 -0.977961 -4.27477e-08
3.7842901 -0.51415098 -2.2474e-08
4.1006398 -0.37289399 0.037816901
3.30213 -0.42772499 -1.86963e-08
4.1546998 -0.274701 0.037816901
3.51195 -0.96576202 -4.2214399e-08
3.94999 -0.89339399 -3.9051201e-08
3.84219 -0.226298 -9.8917097e-09
4.0321398 -1.13012 0.037816901
4.2192502 -0.403198 0.037816901
3.6605101 -1.0469199 -4.5761801e-08
3.8634601 -0.165005 -7.2125301e-09
4.2546501 -0.80136102 0.037816901
3.29035 -0.179934 -7.8650801e-09
4.1869998 -0.65597397 0.037816901
4.2831802 -0.15774301 0.037816901
3.9925699 -0.237574 0.037816901
4.0522499 -0.521492 0.037816901
4.2248998 -0.440256 0.037816901
3.3997099 -0.843023 -3.68494e-08
4.18222 -0.85632998 0.037816901
3.3038001 -0.34145701 -1.49254e-08
3.6668601 -0.41237 -1.80251e-08
4.2113099 -0.83554 0.037816901
4.2399802 -0.553801 0.037816901
4.2556901 -0.76327097 0.037816901
3.34026 -0.139521 -6.0985901e-09
3.85514 -0.46029899 -2.0120099e-08
4.1666999 -1.00811 0.037816901
3.8021901 -0.60017997 -2.6234501e-08
4.1685901 -0.32067099 0.037816901
4.0064998 -0.51287401 0.037816901
4.2680302 -0.550623 0.037816901
3.46545 -0.86285502 -3.7716202e-08
3.9665401 -0.88351899 0.0126736
4.1886501 -1.10904 0.0378168
4.1828599 -0.188942 0.037816901
3.7369001 -0.225337 -9.8497104e-09
4.0584502 -0.50391698 0.037816901
4.0118198 -0.78677201 0.037816901
4.0656199 -0.689183 0.037816901
4.0472002 -0.50725502 0.037816901
4.2181602 -0.98024601 0.037816901
3.53304 -0.42067 -1.8387899e-08
3.4479201 -0.86290902 -3.77186e-08
4.28332 -1.07864 0.037816901
4.15136 -0.977099 0.037816901
3.3105099 -0.97280699 -4.2522402e-08
4.1673398 -0.88994902 0.037816901
3.48072 -0.89126199 -3.89579e-08
4.0963001 -0.41037601 0.037816901
4.0998001 -0.64904499 0.037816901
3.91397 -0.76579499 -3.34737e-08
3.7950301 -0.484036 -2.11577e-08
3.6986201 -0.85296297 -3.72839e-08
3.7950301 -0.484036 -2.11577e-08
3.3955801 -0.476787 -2.0840799e-08
3.95998 -0.49296501 -2.1548001e-08
3.58109 -0.96169102 -4.2036501e-08
3.6299801 -0.38647899 -1.68934e-08
3.7609601 -1.0695601 -4.6751499e-08
3.9665401 -0.134022 0.0161373
4.1619802 -1.10795 0.037816901
3.7509501 -1.0091799 -4.4112401e-08
4.1264901 -0.41508201 0.037816901
4.1716199 -0.62137401 0.037816901
4.05195 -0.620969 0.037816901
3.3722 -1.07581 -4.7024699e-08
3.91678 -1.08196 -4.7293799e-08
4.2843599 -1.05705 0.037816901
4.2584701 -0.80686498 0.037816901
4.1248698 -0.57232201 0.037816901
3.3554001 -0.91602302 -4.0040199e-08
4.1603999 -0.21494199 0.037816901
4.2316799 -1.12949 0.0378168
3.69629 -0.456871 -1.9970299e-08
4.2087402 -0.300464 0.037816901
4.03512 -1.04512 0.037816901
3.9296801 -0.46466699 -2.03111e-08
4.0644202 -0.78349698 0.037816901
4.19805 -0.752092 0.037816901
4.1698298 -0.23136599 0.037816901
3.9665401 -1.03835 0.0056700199
3.8944499 -0.921983 -4.0300801e-08
4.1426501 -1.04254 0.037816901
3.36078 -0.84417701 -3.6899799e-08
3.8940401 -1.0296201 -4.5005901e-08
3.9895201 -0.947272 0.037816901
4.02807 -0.36466399 0.037816901
3.7330501 -0.68251401 -2.9833402e-08
4.1602101 -0.29232001 0.037816901
4.1928401 -0.32891601 0.037816901
4.1343498 -0.48510301 0.037816901
3.9665401 -0.80304402 0.0214878
4.27952 -0.97122103 0.037816901
4.0173502 -0.41530499 0.037816901
4.1967902 -0.26365799 0.037816901
4.0370798 -0.67723101 0.037816901
3.9016299 -0.315689 -1.37991e-08
3.36216 -0.93888599 -4.1039598e-08
3.8472199 -0.30844301 -1.34823e-08
4.1721101 -0.89766198 0.037816901
3.5918601 -0.98937702 -4.3246601e-08
3.3052199 -0.54179198 -2.3682301e-08
3.78158 -0.17039301 -7.4480502e-09
4.16257 -0.71280998 0.037816901
3.4946499 -1.03695 -4.53261e-08
4.1336398 -0.43508101 0.037816901
3.7595899 -0.446823 -1.95311e-08
3.8733001 -0.40767199 -1.7819699e-08
4.10706 -0.69851297 0.037816901
3.39516 -1.0757999 -4.7024201e-08
3.37955 -1.07744 -4.7095799e-08
3.9665401 -0.14219899 0.018549999
3.47702 -1.1263 -4.9231499e-08
4.0657101 -0.179392 0.037816901
4.1310601 -0.42339799 0.037816901
3.5147099 -0.99910003 -4.3671601e-08
4.0394802 -0.90608001 0.037816901
4.0708199 -0.933734 0.037816901
3.42117 -1.09504 -4.7865399e-08
3.45943 -0.98252898 -4.2947299e-08
3.85411 -0.91896403 -4.01688e-08
3.9665401 -0.30355701 0.0189947
4.1659598 -0.15875401 0.037816901
3.39996 -0.36631599 -1.6012001e-08
3.5694399 -0.87369603 -3.8190102e-08
4.08076 -0.83408999 0.037816901
3.32916 -0.29624799 -1.29493e-08
4.05863 -0.98603898 0.037816901
3.2907701 -0.77469999 -3.38629e-08
4.2346702 -0.419898 0.037816901
3.9268899 -1.06502 -4.6553101e-08
3.87696 -0.57593799 -2.5174799e-08
3.2860899 -0.71009499 -3.1039001e-08
3.8747399 -0.89178503 -3.8980801e-08
3.7797201 -0.39993501 -1.7481501e-08
3.9158399 -0.94546002 -4.1326999e-08
3.7720699 -0.88598502 -3.87273e-08
3.7516201 -0.40164101 -1.7556101e-08
4.17454 -0.29966301 0.037816901
3.8304 -1.0712301 -4.6824301e-08
3.81323 -1.1008 -4.8117201e-08
3.7606599 -0.80306399 -3.5102701e-08
4.0947199 -0.66326201 0.037816901
3.8437099 -0.57443702 -2.51092e-08
3.7609601 -1.0695601 -4.6751499e-08
3.9793799 -1.0168999 0.037816901
3.95702 -0.94440401 -4.1280799e-08
4.2643299 -0.85430598 0.037816901
3.5368099 -0.87520701 -3.82562e-08
3.92363 -0.978091 -4.27533e-08
3.72401 -0.74557102 -3.25897e-08
3.6549201 -0.31255201 -1.36619e-08
3.98546 -0.23404001 0.037816901
3.3838201 -1.04944 -4.58719e-08
4.1248698 -0.41559699 0.037816901
3.6824901 -1.0187 -4.4528299e-08
4.1705999 -0.98212099 0.037816901
4.08919 -0.40241399 0.037816901
3.8458099 -0.68961197 -3.01436e-08
4.0085802 -0.55881298 0.037816901
3.3291399 -0.88189602 -3.85485e-08
3.70876 -0.207192 -9.0565599e-09
3.8254499 -0.71847999 -3.1405499e-08
3.98788 -0.91401601 0.037816901
3.72047 -1.10408 -4.82604e-08
3.5390401 -0.977099 -4.2709999e-08
4.0932498 -0.72491002 0.037816901
3.9539499 -0.79930103 -3.49382e-08
3.60461 -1.1297899 -4.93845e-08
4.2290001 -0.73490101 0.037816901
3.99717 -0.63695002 0.037816901
4.2667098 -0.536825 0.037816901
3.2860899 -0.71009499 -3.1039001e-08
3.6245799 -0.14534201 -6.3530501e-09
3.92467 -0.21088301 -9.21791e-09
3.3563499 -0.90684199 -3.9638898e-08
3.69276 -0.739025 -3.23035e-08
3.3689401 -0.94396198 -4.1261501e-08
4.0517802 -1.09109 0.037816901
4.1227798 -0.660528 0.037816901
3.74558 -0.56642002 -2.4758799e-08
3.7302499 -0.392142 -1.71409e-08
4.0219202 -0.72352701 0.037816901
3.7646 -0.74484003 -3.2557701e-08
3.4595301 -0.95729899 -4.1844501e-08
3.7176099 -0.77981102 -3.4086298e-08
3.9071701 -1.03768 -4.5358199e-08
3.4839799 -0.48308101 -2.1116e-08
3.72543 -0.49642599 -2.16993e-08
3.9333501 -0.40783799 -1.7827e-08
4.0220098 -0.715864 0.037816901
3.69613 -0.47971001 -2.0968599e-08
3.8663199 -1.04493 -4.5674799e-08
3.71648 -0.46717501 -2.04207e-08
3.2865701 -0.76432198 -3.34093e-08
3.9665401 -0.229413 0.031808
4.1778698 -1.0566601 0.037816901
3.9665401 -0.95209199 0.016718
4.2589402 -1.05932 0.037816901
4.20017 -0.38415501 0.037816901
3.49035 -0.97115898 -4.2450299e-08
3.31654 -0.87240702 -3.8133798e-08
3.7470601 -0.62863302 -2.7478199e-08
3.9739799 -0.21795 0.037816901
3.8747399 -0.89178503 -3.8980801e-08
3.9584401 -1.08079 -4.7242299e-08
3.7260001 -1.00121 -4.3763698e-08
3.6607101 -0.428781 -1.8742501e-08
3.8878 -0.96456301 -4.2162e-08
3.31603 -0.30750301 -1.34412e-08
4.0647101 -0.90153098 0.037816901
3.8250201 -0.40244299 -1.75912e-08
4.1985002 -0.29330599 0.037816901
4.2348499 -1.07664 0.037816901
3.5448999 -1.00846 -4.40807e-08
4.2227101 -0.65580201 0.037816901
3.8103499 -0.74542499 -3.2583301e-08
3.42978 -1.12142 -4.90184e-08
3.3610499 -0.55006403 -2.40438e-08
3.97247 -0.84535301 0.037816901
3.77321 -1.04425 -4.56454e-08
4.1788402 -0.35258901 0.037816901
3.7814 -1.0933501 -4.77913e-08
4.1166201 -1.0508 0.037816901
3.3717301 -1.0394 -4.54332e-08
4.0859299 -0.55599499 0.037816901
3.6460299 -0.99567097 -4.3521801e-08
3.9665401 -0.23329701 0.0286116
3.96099 -1.00001 -4.3711299e-08
3.9714701 -0.79125398 0.037816901
4.2781 -0.96421599 0.037816901
3.78175 -0.51482898 -2.25037e-08
4.1721101 -0.89766198 0.037816901
3.92027 -0.43320301 -1.8935699e-08
3.9883101 -0.22377799 0.037816901
4.20051 -0.927266 0.037816901
3.9816101 -0.39786199 0.037816901
3.6884301 -0.92164302 -4.0285901e-08
4.2161102 -0.182364 0.037816901
3.9665401 -0.23329701 0.0286116
3.5541401 -0.44222099 -1.9329899e-08
4.2601199 -1.04309 0.037816901
3.9071701 -1.03768 -4.5358199e-08
4.1779699 -0.286322 0.037816901
3.96769 -0.95869702 0.037816901
3.64448 -0.44462201 -1.94348e-08
3.4293301 -0.93046498 -4.0671502e-08
3.81493 -0.278606 -1.21782e-08
3.6834199 -0.98794502 -4.3184102e-08
4.0941801 -0.59134001 0.037816901
3.3145001 -0.809461 -3.53823e-08
3.9584401 -1.08079 -4.7242299e-08
3.9951601 -0.65976101 0.037816901
4.1805401 -1.01335 0.037816901
3.94701 -0.94283497 -4.1212299e-08
3.9665401 -0.64955598 0.0130152
4.1603999 -0.21494199 0.037816901
3.2946401 -0.186921 -8.1704901e-09
3.8817 -0.34772399 -1.51993e-08
3.3580101 -0.970429 -4.2418399e-08
3.64993 -0.134002 -5.8573399e-09
3.7074399 -0.85424799 -3.7340001e-08
3.5123 -0.83131897 -3.6337799e-08
3.90538 -0.99086201 -4.3311601e-08
3.71649 -0.354633 -1.5501399e-08
4.1747799 -0.161201 0.037816901
3.6354799 -1.06927 -4.6738698e-08
3.70312 -0.20042101 -8.7605896e-09
3.29074 -0.42111301 -1.8407199e-08
3.65117 -0.974841 -4.2611301e-08
3.77038 -0.89183003 -3.8982801e-08
3.9427199 -0.65707701 -2.87215e-08
3.6194301 -0.79271799 -3.4650501e-08
4.1248698 -0.57232201 0.037816901
4.19872 -0.61229402 0.037816901
4.2392302 -0.25787801 0.037816901
3.8900001 -1.09593 -4.79044e-08
4.0472002 -0.50725502 0.037816901
3.3256099 -0.94680703 -4.1385899e-08
4.1105499 -0.83471298 0.037816901
3.97964 -0.93287802 0.037816901
3.6239901 -0.90337402 -3.94874e-08
3.83987 -0.64428198 -2.81622e-08
3.9665401 -1.00511 0.0037332
3.54088 -1.10501 -4.8300901e-08
3.6324401 -0.89169401 -3.89768e-08
3.43103 -1.0147901 -4.4357702e-08
4.1915102 -0.783777 0.037816901
4.2537999 -0.81217903 0.037816901
3.33588 -1.0274 -4.49086e-08
3.3055 -0.76421398 -3.34045e-08
3.37169 -0.212328 -9.2810799e-09
3.99717 -0.63695002 0.037816901
3.9665401 -1.01928 0.0161287
4.0947199 -0.66326201 0.037816901
4.0975399 -0.308999 0.037816901
4.1659598 -0.15875401 0.037816901
3.60706 -0.82866198 -3.62216e-08
4.2623 -0.66278702 0.037816901
4.2389498 -0.14473701 0.037816901
3.6493299 -0.18546 -8.1066496e-09
4.2027502 -0.210527 0.037816901
3.3809099 -0.93595499 -4.0911502e-08
3.9665401 -0.184544 0.0337115
3.3902299 -0.49090099 -2.1457801e-08
4.0541401 -0.71192598 0.037816901
3.46013 -0.51546699 -2.25316e-08
3.91201 -0.335857 -1.46807e-08
3.2995999 -0.85794997 -3.7501799e-08
4.0708399 -0.64853197 0.037816901
4.1819 -0.208399 0.037816901
3.3913 -0.96383399 -4.21302e-08
3.71208 -0.37085 -1.6210199e-08
3.70645 -0.91801703 -4.01274e-08
3.3195601 -0.16402601 -7.1697501e-09
3.81341 -0.777565 -3.3988101e-08
3.8968799 -1.0241899 -4.47682e-08
3.6918499 -0.806831 -3.5267401e-08
3.74001 -0.25279999 -1.10501e-08
4.01724 -0.34644699 0.037816901
3.78181 -0.507074 -2.21647e-08
3.71947 -0.99903399 -4.3668798e-08
3.7801199 -0.58197302 -2.5438601e-08
4.0717702 -0.62852502 0.037816901
3.95731 -0.557971 -2.43895e-08
3.43819 -1.02043 -4.4603901e-08
3.3055 -0.76421398 -3.34045e-08
3.38923 -0.427264 -1.8676101e-08
3.98195 -0.93495399 0.037816901
3.66271 -1.0209301 -4.4625899e-08
3.6797199 -1.06488 -4.6547001e-08
4.1998401 -0.77840298 0.037816901
3.9611199 -0.97828299 -4.2761702e-08
4.1392698 -0.77328497 0.037816901
4.0280299 -0.74997002 0.037816901
4.1205602 -0.887869 0.037816901
3.3015201 -0.76994699 -3.3655098e-08
4.1686201 -0.42675501 0.037816901
3.80655 -0.487643 -2.1315399e-08
3.7110901 -0.83182597 -3.63599e-08
4.0219202 -0.72352701 0.037816901
3.7577701 -0.1365 -5.9665402e-09
3.49474 -0.86091501 -3.7631398e-08
3.5244999 -1.05884 -4.6283098e-08
3.9333301 -0.28424299 -1.24246e-08
3.8464899 -0.19581699 -8.5593497e-09
3.3165801 -1.10702 -4.8388902e-08
4.28581 -0.98287702 0.037816901
3.82177 -0.416457 -1.82037e-08
4.2320499 -1.1141599 0.037816901
4.0830002 -0.89421302 0.037816901
3.84887 -0.69627303 -3.0434801e-08
3.38902 -0.880669 -3.84949e-08
3.3229101 -0.132856 -5.8072498e-09
3.51227 -0.428464 -1.8728599e-08
4.1823802 -0.82239401 0.037816901
4.0567698 -0.341663 0.037816901
4.1296 -0.18027399 0.037816901
4.15627 -0.89963597 0.037816901
3.7866099 -0.83963299 -3.6701199e-08
3.32113 -0.93564099 -4.0897799e-08
3.91803 -0.218587 -9.5546699e-09
3.55161 -1.1138999 -4.8689699e-08
3.80655 -0.487643 -2.1315399e-08
3.93644 -0.80900699 -3.53625e-08
4.2832098 -0.965316 0.037816901
3.69384 -0.453556 -1.98254e-08
3.9077699 -0.35264599 -1.54145e-08
4.1792798 -0.84833097 0.037816901
3.72908 -0.89372402 -3.9065601e-08
4.0262399 -1.09752 0.037816901
3.3587699 -0.56642997 -2.4759199e-08
3.6240001 -1.0470999 -4.5769799e-08
3.86675 -0.83617598 -3.6550102e-08
3.5405099 -1.09833 -4.80089e-08
3.69314 -1.0015399 -4.37783e-08
4.2533202 -0.46808901 0.037816901
4.0185399 -0.62972999 0.037816901
3.6354799 -1.06927 -4.6738698e-08
3.8339801 -0.45814699 -2.0026e-08
3.9665401 -0.204951 0.030054601
4.21106 -0.57357502 0.037816901
3.9665401 -0.375038 0.021782899
3.6104901 -0.82509297 -3.60656e-08
3.8180001 -0.235254 -1.02832e-08
3.3381801 -0.320721 -1.4019e-08
4.2730899 -0.71680999 0.037816901
3.5580001 -0.95303899 -4.16583e-08
3.9756701 -0.357306 0.037816901
3.9461701 -0.32446101 -1.41825e-08
3.7950301 -0.484036 -2.11577e-08
3.98825 -0.362349 0.037816901
3.93929 -0.21031 -9.1928696e-09
4.0941901 -0.239406 0.037816901
3.58722 -1.02149 -4.4650299e-08
3.9770999 -0.266799 0.037816901
4.2279201 -0.938815 0.037816901
4.2125702 -0.73995 0.037816901
3.72809 -0.92135501 -4.0273399e-08
4.19626 -0.699269 0.037816901
3.9665401 -1.03423 0.034674
4.0173502 -0.41530499 0.037816901
4.0521998 -0.99180901 0.037816901
3.39221 -0.38038099 -1.6626799e-08
3.7021 -0.73338503 -3.2056999e-08
3.8243599 -0.377235 -1.6489301e-08
4.2768698 -0.91652602 0.037816901
3.86286 -0.48631799 -2.1257501e-08
3.6793001 -0.89029002 -3.8915498e-08
4.1282501 -0.86129099 0.037816901
4.0633502 -1.08591 0.0378168
4.21665 -0.87321001 0.037816901
3.39187 -0.93457401 -4.0851099e-08
4.1814198 -0.171827 0.037816901
3.46312 -0.99168402 -4.3347502e-08
3.73735 -0.66467899 -2.9053799e-08
4.28088 -0.83842599 0.037816901
3.70801 -0.90341902 -3.94894e-08
3.32305 -0.48351601 -2.1135e-08
3.9307499 -0.570068 -2.49183e-08
4.1793799 -0.61161 0.037816901
3.36725 -0.144306 -6.3077699e-09
3.44538 -0.413692 -1.8082901e-08
3.84642 -1.1056499 -4.83289e-08
3.94927 -0.61762899 -2.6997199e-08
3.6653199 -0.35568601 -1.55474e-08
3.9631901 -1.10866 -4.84604e-08
4.2378702 -0.62501103 0.037816901
3.7969501 -0.62702399 -2.74079e-08
3.60461 -1.1297899 -4.93845e-08
3.8589599 -0.92541099 -4.0450601e-08
4.0290198 -0.49014199 0.037816901
3.9665401 -0.23329701 0.0286116
3.7021 -0.73338503 -3.2056999e-08
3.6480501 -0.92949802 -4.0629299e-08
4.2155199 -0.81776202 0.037816901
3.8503799 -0.77674502 -3.3952301e-08
4.12256 -0.168777 0.037816901
4.1724901 -0.649773 0.037816901
3.97756 -0.49103099 0.037816901
3.88818 -0.450845 -1.9706899e-08
3.65482 -0.45737499 -1.9992299e-08
3.8362999 -0.34432 -1.5050601e-08
3.76561 -0.56612301 -2.47458e-08
4.1514802 -1.11631 0.037816901
3.61818 -0.37663099 -1.64629e-08
4.2290001 -0.73490101 0.037816901
4.20152 -0.74534303 0.037816901
3.4607401 -1.10811 -4.8436501e-08
3.9665401 -0.64563102 0.0252349
3.9394701 -1.04417 -4.5641599e-08
3.32528 -0.49963301 -2.1839501e-08
4.0884299 -0.39024901 0.037816901
3.83518 -0.89966202 -3.9325101e-08
3.3180799 -0.89450598 -3.9099699e-08
3.6793001 -0.89029002 -3.8915498e-08
3.7286401 -0.48896599 -2.13732e-08
3.8068099 -0.731031 -3.1954102e-08
3.8362501 -0.76300001 -3.3351501e-08
4.1943798 -0.84556401 0.037816901
4.1094398 -0.938721 0.037816901
3.32302 -0.80402398 -3.5144701e-08
3.6326499 -0.911578 -3.9846e-08
3.72719 -0.53969699 -2.3590699e-08
3.8928399 -0.369598 -1.61555e-08
3.8940899 -0.55914497 -2.44408e-08
