# .PCD v0.7 - Point Cloud Data file format
VERSION 0.7
FIELDS x y z
SIZE 4 4 4
TYPE F F F
COUNT 1 1 1
WIDTH 1656
HEIGHT 1
VIEWPOINT 0 0 0 1 0 0 0
POINTS 1656
DATA ascii
-4.1669202 3.1122 2.5985301
-4.2867999 3.1488199 0.74736297
-4.2721801 3.1122 2.7614
-4.4828701 3.0755899 0.75598902
-3.78707 3.1122 2.6642499
-4.2249198 3.1488199 1.06116
-4.4534602 3.0755899 0.0308688
-4.2718801 3.1488199 1.2948999
-4.1816802 3.1488199 0.546601
-4.0508599 3.1488199 1.3426501
-4.6988201 2.90167 0.070171803
-4.3867202 3.1488199 1.68506
-4.0372601 3.1488199 1.3811899
-3.7238901 3.1488199 1.52127
-4.6988201 2.9297099 0.337062
-4.01929 3.1488199 1.05381
-3.7153101 3.1122 3.0320301
-4.3643799 3.1488199 0.9023
-4.2250099 3.1488199 0.76280898
-4.6988201 3.0009601 2.5741501
-4.6988201 3.1027501 2.3481801
-3.9609101 3.1488199 1.26683
-4.6988201 2.94824 2.69383
-4.6371002 3.1122 1.52127
-4.50175 3.0863199 1.9163899
-4.0374298 3.1488199 1.71631
-3.7213399 3.1488199 2.34656
-4.3415899 3.1488199 1.63922
-4.4453101 3.1488199 1.42082
-4.5609198 3.1122 2.4771199
-4.50175 3.0850899 2.2028301
-4.1515498 3.1488199 0.366328
-4.5707598 3.1122 0.91055602
-4.4460602 3.0818701 1.30136
-4.6988201 2.9230001 1.9567
-4.46946 3.0755899 2.07546
-4.24333 3.1488199 2.21527
-3.9655499 3.1488199 0.91102201
-4.6988201 2.9299901 0.92883903
-4.4109502 3.1488199 0.78626603
-4.50175 3.09079 2.4432099
-4.4735498 3.0755899 0.11652
-4.6988201 2.92171 0.675789
-4.3108501 3.1488199 2.3776
-4.6988201 3.0947101 2.50158
-4.6988201 2.9814401 0.26790401
-3.8699601 3.1466601 2.56299
-4.5696802 3.1122 1.49078
-4.6988201 2.8735499 2.7876999
-4.6988201 2.9857099 2.7955
-4.0212598 3.1122 2.91399
-4.6988201 2.9301901 2.0320201
-4.07441 3.1488199 1.92295
-4.2374301 3.1488199 1.92345
-4.0697899 3.1488199 1.04145
-3.9642999 3.1488199 1.3734601
-4.63063 3.1122 0.83255398
-4.6751299 3.1122 2.6040499
-4.3899202 3.1488199 2.2207501
-4.2880001 3.1488199 1.04581
-4.4948602 3.0755899 0.28316
-3.9075899 3.1488199 0.39989701
-4.4735899 3.0755899 1.7323999
-4.43361 3.1488199 0.81471997
-3.9769101 3.1488199 2.2960501
-4.1441598 3.1488199 0.81207502
-4.00174 3.1488199 2.1654501
-4.6988201 2.9969699 0.31415799
-4.6445198 3.1122 0.68403602
-4.6988201 2.88778 1.92053
-4.3206201 3.1488199 1.65324
-4.6375098 3.1122 2.0520799
-4.35606 3.1488199 0.206631
-4.50175 3.11536 2.4339199
-4.6988201 3.08729 0.215771
-4.6292701 3.1122 1.82935
-3.8543 3.1488199 0.36841601
-4.02947 3.1488199 1.26423
-4.4460602 3.0963099 0.20644
-4.6988201 3.0236101 0.83101797
-4.0233598 3.1488199 1.98351
-4.14781 3.1488199 0.79078501
-4.6988201 3.08797 0.0325034
-4.6988201 2.97137 1.10715
-4.6988201 2.8987 0.34700999
-4.6988201 3.0982201 2.6928599
-4.6988201 2.99331 1.25648
-3.85706 3.1488199 2.25334
-4.5250301 3.1122 0.189998
-4.50175 3.10795 1.18582
-4.1932001 3.1488199 2.1456101
-4.0507202 3.1488199 0.016865101
-3.9345801 3.1488199 0.30711499
-4.6842399 3.1122 2.63028
-4.6442699 3.1122 0.67650098
-4.4460602 3.1201 1.17489
-4.6988201 3.03214 1.47586
-4.6988201 3.0285499 2.8175399
-3.75612 3.1488199 1.44367
-4.00243 3.1488199 2.3583701
-4.5148101 3.1122 0.55471599
-3.7745299 3.1488199 1.92816
-3.75528 3.1488199 0.56391501
-4.26266 3.1488199 0.131239
-4.1770201 3.1488199 1.08825
-4.2083101 3.0809901 2.5072999
-4.6988201 2.9119599 0.91114599
-4.67875 3.1122 2.6953599
-3.8868401 3.1488199 1.77235
-3.85671 3.1488199 0.47711101
-4.6988201 3.0364001 2.26419
-4.6988201 3.0151501 1.6468101
-4.6988201 3.08338 2.38621
-4.6988201 3.0641201 0.59714901
-3.7722199 3.1488199 1.7763
-4.6988201 3.0599899 1.42549
-3.8618701 3.1400001 2.56299
-4.6988201 2.8961 2.9509799
-4.2020001 3.1122 2.80966
-4.0002298 3.1488199 0.49755001
-4.5144401 3.1122 0.33818001
-4.6988201 2.8950801 2.89469
-4.4626002 3.0755899 2.2404599
-4.6988201 2.96543 0.98628402
-4.6392498 3.1122 2.5552399
-3.9956 3.1488199 1.0273401
-4.5187001 3.1122 1.50291
-4.6988201 3.0924101 1.63316
-4.17658 3.1488199 2.0594201
-4.13205 3.1488199 1.15888
-3.86779 3.1488199 2.37795
-4.6988201 3.0557001 2.4137299
-4.6988201 2.98476 0.67109603
-4.5126801 3.1122 1.76187
-4.50175 3.1474199 0.32004201
-4.3535399 3.1488199 0.73760599
-4.6977401 3.1122 0.280734
-4.2308798 3.1488199 1.42853
-4.4965501 3.0755899 0.0930994
-4.50175 3.08636 2.03794
-4.4460602 3.10198 0.38229501
-4.6988201 2.9000101 0.97275102
-3.9473701 3.1488199 0.98656398
-4.1163902 3.1488199 2.3687601
-4.3679099 3.1122 2.6810701
-3.87099 3.1488199 0.842089
-4.6988201 3.10448 2.39779
-4.57552 3.1122 0.068158299
-4.50175 3.09816 2.4984601
-4.0529299 3.1488199 1.42427
-4.65377 3.1122 0.0297125
-4.0876398 3.1488199 0.68892902
-4.1223698 3.1122 2.75
-4.1402898 3.1488199 0.346026
-3.8682301 3.1488199 0.97083402
-4.6988201 3.07671 1.4429899
-4.0475202 3.1122 2.7003901
-4.50175 3.0894001 0.32513401
-4.6988201 2.9303501 0.072713099
-4.6988201 2.9015 1.50126
-4.18571 3.1488199 0.311207
-4.6988201 2.8833201 0.51651001
-4.6988201 2.93466 1.0774699
-4.5500302 3.1122 2.59637
-4.6988201 3.01267 2.3548
-4.1412802 3.1488199 0.71774501
-4.6988201 3.0452299 2.38357
-4.4387798 3.1488199 1.26428
-4.4460602 3.0832601 2.36955
-4.1196599 3.1488199 1.4042799
-4.0718398 3.1488199 2.1052599
-4.2808499 3.1488199 1.3301899
-4.50175 3.10832 1.30883
-4.05443 3.1488199 0.550201
-3.8108799 3.1488199 0.45519999
-4.1816301 3.1122 2.7881801
-4.6988201 3.09041 0.79422498
-4.6988201 2.9379101 2.5689399
-4.6988201 2.9171 0.84599799
-3.9696801 3.1488199 1.91567
-4.6988201 3.0359001 1.956
-4.6776199 3.1122 0.73740798
-4.1280398 3.1488199 0.44398901
-4.50175 3.10162 1.30435
-3.7500899 3.1488199 2.3648
-4.50175 3.08974 1.2948
-4.2301202 3.1122 2.94556
-4.6988201 2.9241099 2.7337999
-4.3899202 3.1488199 2.2207501
-3.8017299 3.1488199 0.553545
-4.50175 3.0791399 1.8147
-4.6988201 2.9171 0.84599799
-4.6842999 3.1122 2.94032
-4.5734901 3.1122 2.1344299
-4.0264101 3.1488199 1.84902
-4.1463299 3.1488199 0.63270003
-4.6194501 3.1122 2.27354
-4.3937702 3.1488199 1.83039
-4.2727499 3.1488199 0.118442
-4.2990098 3.1488199 2.30565
-4.5348902 3.1122 0.133911
-3.7625501 3.1488199 0.46147099
-4.5854902 3.1122 0.79716802
-4.6988201 2.9454601 0.75192302
-4.6988201 3.0386901 2.2502799
-4.6988201 2.93519 1.91249
-4.1475 3.1488199 0.85727602
-4.2638698 3.1488199 1.8216701
-4.2515502 3.1488199 0.55785102
-3.9756801 3.1488199 1.30053
-4.5427198 3.1122 0.349585
-4.0283999 3.1488199 1.05165
-4.4460602 3.0848999 0.83009499
-4.6988201 2.89906 0.66834301
-4.1749601 3.1488199 1.4744101
-4.12604 3.1488199 1.67295
-4.5775299 3.1122 1.20989
-4.6261301 3.1122 0.33600199
-3.73927 3.1488199 1.84456
-4.2721801 3.1122 2.7614
-4.50175 3.1048801 0.32499301
-4.1363201 3.1488199 1.9896899
-3.9807501 3.1488199 0.61027598
-4.44561 3.1488199 0.16651
-4.0631399 3.1488199 0.39557701
-4.0578098 3.1488199 1.57669
-4.4258099 3.1488199 0.23967899
-4.6988201 2.90733 1.1813101
-4.6988201 2.93294 2.01423
-4.6470799 3.1122 0.67970699
-4.64639 3.1122 2.17518
-3.9683299 3.1488199 1.92826
-4.3789701 3.1488199 0.415737
-4.14885 3.1488199 0.42820901
-4.20928 3.1488199 0.134361
-4.6988201 3.07973 1.3126301
-4.6988201 3.0869901 2.19049
-4.6736898 3.1122 2.4429901
-4.3480201 3.1488199 0.86750698
-4.6490102 3.1122 1.43779
-4.6988201 2.9774799 2.29842
-3.9965 3.1488199 0.804178
-4.4471002 3.0755899 2.5200801
-4.3129301 3.1488199 2.2997799
-4.62216 3.1122 0.671013
-4.1003399 3.1488199 0.71591401
-4.6988201 3.0791099 0.0288241
-4.4784799 3.0755899 0.14442
-4.4460602 3.12971 2.14222
-4.6988201 3.0568099 1.62578
-4.4788499 3.0755899 1.37468
-3.9105 3.1122 3.0014701
-4.50175 3.10215 0.72862101
-4.0586901 3.1122 3.03281
-4.5050201 3.1122 1.331
-3.7346799 3.1488199 2.4832201
-3.95854 3.1488199 1.02244
-4.6988201 3.04724 1.43794
-3.97614 3.1488199 0.76301998
-4.6988201 2.9307699 0.57688701
-4.6988201 2.9911499 1.93619
-4.2871699 3.1488199 1.61016
-4.1712098 3.1122 2.9904399
-3.7816899 3.1488199 2.3912101
-4.4411302 3.1488199 0.35514
-4.0116901 3.1488199 2.12093
-4.17483 3.1488199 0.61109698
-4.1482201 3.1488199 1.5827301
-3.99016 3.1488199 0.82128298
-4.5534701 3.1122 0.469064
-4.6511798 3.1122 0.67335701
-3.95825 3.1488199 1.0061001
-4.4460602 3.08268 0.60320199
-3.7277999 3.1488199 1.50958
-4.6988201 2.9669499 1.57331
-3.7692499 3.1488199 0.42456201
-4.5647402 3.1122 0.032594599
-4.6988201 2.9117701 2.2575901
-4.6217699 3.1122 2.59027
-4.6496501 3.1122 2.38311
-4.57055 3.1122 2.79111
-4.2334299 3.1488199 0.63540602
-4.50175 3.1514201 2.5058999
-3.8090501 3.0755899 2.56266
-3.89924 3.1488199 1.91515
-4.6612301 3.1122 0.87572402
-4.1055398 3.1488199 1.38337
-4.19942 3.1488199 0.177991
-4.4460602 3.10782 1.27842
-4.6988201 2.9411199 0.563407
-4.4797201 3.0755899 2.3089199
-4.6375098 3.1122 2.0520799
-4.2544498 3.1488199 1.2618999
-4.50175 3.1153901 1.94715
-4.2186198 3.1488199 1.35066
-4.0162802 3.1122 2.72264
-4.16009 3.1488199 1.3513401
-4.0992298 3.1488199 1.8429199
-4.6988201 2.9153399 0.93313098
-3.73946 3.1488199 1.3679
-4.0893798 3.1488199 1.67568
-4.2085099 3.1488199 1.87797
-4.5855198 3.1122 2.2932999
-4.6627798 3.1122 0.663324
-4.2712402 3.1488199 1.57453
-4.50175 3.1563799 0.66939801
-4.4419398 3.1488199 0.591281
-4.6988201 3.0811701 0.113108
-4.35815 3.1488199 0.335455
-3.9890101 3.1488199 0.98825997
-3.7384501 3.1488199 0.88753301
-4.4460602 3.1262701 0.88341701
-4.6583099 3.1122 2.18117
-4.6988201 3.07937 1.85463
-4.6988201 2.9637699 2.6365199
-3.7499599 3.1488199 0.50790399
-3.88761 3.1122 3.00424
-4.1230798 3.1122 2.72436
-4.6988201 3.01618 1.35798
-4.50175 3.0764501 1.29905
-4.50175 3.0894001 0.32513401
-4.6542902 3.1122 1.91889
-4.6988201 3.05899 1.54686
-4.6988201 3.04087 0.783041
-4.6988201 3.0055001 1.91758
-4.2224102 3.1488199 1.18453
-4.6184201 3.1122 2.7362599
-3.9212201 3.1488199 1.0242701
-4.4657402 3.0755899 1.33294
-4.6249199 3.1122 1.49879
-4.6988201 2.8710799 0.41891301
-3.845 3.1488199 0.95640498
-4.4540501 3.0755899 0.27412501
-4.2890801 3.1488199 1.38622
-3.9484701 3.1488199 2.3378301
-3.7395999 3.1122 2.6805201
-4.1895299 3.1122 2.6898601
-4.6988201 3.0515101 1.71646
-4.0476098 3.1488199 0.35371399
-4.6988201 3.0687301 0.57289201
-4.4460602 3.09935 2.4454401
-4.6988201 3.10234 2.75261
-4.5151401 3.1122 2.15166
-4.3281698 3.1488199 1.38762
-4.3665199 3.1488199 1.2757
-4.5721798 3.1122 1.38155
-4.50175 3.11059 0.929021
-4.6160402 3.1122 0.24289601
-4.6666899 3.1122 0.77302498
-3.77405 3.1488199 1.86875
-4.6988201 3.0004001 2.5220799
-4.09693 3.1488199 1.16767
-4.5946698 3.1122 1.69822
-4.4460602 3.11498 0.144499
-4.6988201 3.09495 0.642802
-4.6931 3.1122 2.4286599
-4.0565901 3.1488199 1.9249001
-4.1374602 3.1488199 0.32562199
-4.3582702 3.1488199 0.82795203
-4.1680398 3.1488199 0.202049
-4.4269099 3.12357 2.56299
-3.7608199 3.08886 2.5072999
-4.6988201 3.10199 0.78330499
-4.2085099 3.1488199 1.87797
-4.2259102 3.1488199 0.0140247
-4.6988201 2.9857099 2.7955
-4.1654902 3.1488199 2.4960401
-4.2091298 3.1488199 0.203669
-4.6988201 3.0755799 1.8548501
-4.3022399 3.1488199 0.474621
-4.6357999 3.1122 1.40008
-3.7588 3.1488199 0.88597399
-4.50175 3.1189599 0.53239
-4.53935 3.1122 2.4630001
-4.6043601 3.1122 0.44963199
-4.1533399 3.1488199 1.0434901
-4.5538502 3.1122 0.82642698
-4.1515498 3.1488199 0.366328
-4.6988201 2.8826201 0.33048499
-4.4460602 3.1393299 0.37786001
-4.6805902 3.1122 1.9092
-4.1138501 3.1488199 1.74046
-4.30619 3.1488199 1.62576
-4.1893702 3.1488199 1.2103601
-4.4460602 3.13553 1.16348
-4.4460602 3.1454101 1.36561
-4.50986 3.1122 2.5578101
-4.6988201 2.98876 2.02984
-3.74104 3.1488199 1.75351
-4.6988201 2.8864801 2.66468
-4.1750398 3.1488199 0.94042802
-4.5314598 3.1122 2.5088301
-4.3736501 3.1488199 0.0408144
-4.4460602 3.08518 0.906645
-4.2463698 3.1488199 0.147609
-4.6988201 2.9962399 1.83851
-3.8966701 3.1488199 1.07488
-3.82411 3.1488199 1.79873
-4.5878601 3.1122 0.80711699
-4.6988201 3.07809 1.9034801
-4.4460602 3.12132 1.46552
-4.6988201 2.9107599 1.9233201
-3.9648299 3.1488199 0.77753502
-4.3480501 3.1488199 1.4757299
-4.6988201 2.8968799 1.42764
-4.5640202 3.1122 0.085094199
-3.82777 3.1488199 1.33881
-4.0622802 3.1488199 2.13342
-4.1455402 3.1488199 2.46364
-4.6988201 3.10039 0.126068
-3.7406199 3.10128 2.56299
-4.3888602 3.1122 2.7144599
-4.23243 3.1488199 0.389734
-4.4460602 3.11415 1.21061
-3.8717301 3.1488199 2.2728601
-4.6988201 3.09287 0.85663003
-4.6988201 2.9751 2.6011801
-4.1028099 3.1488199 1.08366
-4.6988201 2.8910301 0.59691602
-4.1341701 3.1488199 2.1607499
-4.5142202 3.1122 0.111365
-4.2565498 3.1488199 0.27977699
-4.1863599 3.1488199 1.9376
-4.6988201 3.07371 1.5079499
-4.6988201 3.03652 1.49333
-4.2023902 3.1488199 2.4963701
-4.3403702 3.1488199 0.51893502
-3.8971701 3.1488199 1.0114501
-4.6988201 3.1024101 1.83452
-4.6988201 3.0741999 0.697577
-4.6988201 2.9984 2.20667
-4.6988201 3.0883601 0.35077301
-4.6988201 2.97013 1.3742501
-4.50175 3.1410999 0.32894999
-3.7421899 3.1488199 0.307298
-4.5404701 3.1122 2.1784699
-4.50175 3.0910299 1.24168
-4.32482 3.1488199 1.74709
-4.6988201 3.0243399 2.4593599
-4.6988201 2.94348 0.34837899
-3.75124 3.1488199 0.30349699
-3.8573201 3.1488199 0.44976601
-4.6988201 2.9413199 0.072718099
-4.1723099 3.1122 2.5631399
-4.50175 3.1338999 1.4341201
-4.61759 3.1122 2.4894199
-4.3761601 3.1488199 0.126261
-4.69838 3.1122 0.57529402
-3.99774 3.1488199 2.3375499
-4.4460602 3.0847099 0.25947499
-4.2508502 3.1488199 0.93060201
-4.1357598 3.1488199 2.26004
-4.1897302 3.1122 2.9679301
-4.4074202 3.1488199 1.39204
-4.4460602 3.1409299 0.044274099
-3.97788 3.1122 2.67472
-4.0683298 3.1488199 0.81732398
-4.4114599 3.1488199 0.18957201
-3.73086 3.1488199 2.4288299
-4.57757 3.1122 2.51984
-3.94994 3.1488199 1.71009
-4.6988201 2.9530699 0.80893099
-3.9807701 3.1488199 0.89745098
-4.10885 3.1122 2.8783
-4.1045098 3.1488199 1.6667399
-4.6988201 3.07639 2.05193
-4.1160898 3.1488199 0.087603703
-4.64362 3.1122 1.6946
-4.4460602 3.1178999 1.42696
-4.50175 3.0969601 0.39026201
-4.6988201 2.98751 2.15482
-4.4460602 3.0959201 2.12218
-4.6161699 3.1122 0.64281499
-4.19871 3.1488199 0.898866
-4.1981502 3.1488199 2.1637299
-3.77807 3.1488199 1.90123
-4.4460602 3.1267099 0.88360298
-4.5419102 3.1122 2.1758599
-4.19629 3.1122 2.74788
-4.1649699 3.1488199 0.75513297
-4.4460602 3.1194 0.0168247
-4.1979098 3.1488199 1.27921
-4.6395702 3.1122 2.3972099
-4.5218301 3.1122 0.226264
-4.4394398 3.1488199 2.5005901
-4.4460602 3.11464 0.67098802
-4.6737299 3.1122 1.4324501
-4.0310102 3.1488199 1.6074899
-4.6988201 3.06796 0.26370299
-4.50175 3.10289 1.3582
-4.0953202 3.1488199 2.1656301
-4.4113402 3.1488199 0.19781201
-4.6292701 3.1122 1.82935
-4.1992102 3.1488199 2.0578001
-4.50175 3.1340699 0.097499199
-4.1613302 3.1488199 2.26474
-4.6988201 3.0492001 1.23217
-4.61131 3.1122 1.22948
-4.12642 3.1488199 1.65365
-4.3385301 3.1488199 0.33293799
-3.86203 3.15027 2.56299
-4.6173301 3.1122 0.046873201
-3.87235 3.1122 2.6351299
-4.2607002 3.1488199 1.63889
-4.37989 3.1488199 0.143135
-3.9932101 3.1488199 0.78152102
-3.7710299 3.1122 2.6336801
-4.4428401 3.1488199 0.25726801
-4.6988201 2.9669499 1.57331
-4.3717299 3.1488199 2.2943799
-3.8671701 3.1488199 0.42650601
-4.50175 3.14434 2.23722
-4.6988201 3.10269 1.34307
-4.4287801 3.1152899 2.56299
-4.0654202 3.1122 2.7712901
-4.50175 3.0952899 2.0934
-3.9556 3.1488199 2.2825401
-4.6293898 3.1122 1.39982
-4.6988201 3.1052799 2.63745
-4.4460602 3.14135 2.3461599
-4.5228901 3.1122 1.48401
-4.4460602 3.10939 0.260719
-4.6083102 3.1122 0.354031
-4.3761601 3.1488199 0.126261
-4.6988201 2.89256 2.7516
-4.2246399 3.1488199 0.64454901
-4.0272999 3.1488199 1.2729501
-4.0191998 3.1488199 1.93864
-4.2276902 3.1488199 1.15914
-3.84496 3.1488199 2.3312199
-3.8071301 3.1488199 1.41131
-4.2466202 3.1488199 1.13824
-4.5321999 3.1122 1.9704601
-3.82636 3.1488199 0.495637
-4.6988201 2.9361 2.0704801
-4.2101402 3.1488199 0.436149
-4.4193802 3.1488199 0.88354403
-4.2165999 3.1488199 0.64128703
-4.4460602 3.1409299 0.044274099
-4.50175 3.1443901 1.75326
-4.4597201 3.0755899 2.2565701
-4.6988201 3.0161901 1.4622
-4.5638199 3.1122 2.4600101
-4.62782 3.1122 2.3552499
-4.0114498 3.1488199 0.93165302
-4.4355898 3.1122 2.59904
-4.5865998 3.1122 0.396063
-4.6988201 2.88732 0.68359601
-4.0249 3.1488199 2.00336
-4.4630299 3.0755899 2.2967501
-4.64362 3.1122 1.6946
-4.5805702 3.1122 2.58483
-4.0746598 3.1488199 0.73062402
-4.2603598 3.1488199 2.2585399
-4.4787002 3.0755899 0.27376699
-4.4460602 3.1283 0.71989799
-4.6283498 3.1122 2.6900201
-4.4460602 3.1275401 0.58162701
-3.88834 3.1488199 1.79114
-4.4460602 3.09162 1.8382601
-4.4102201 3.1488199 1.87105
-4.2312999 3.1488199 1.1689301
-3.8868401 3.1488199 1.77235
-4.3017302 3.1488199 0.35365
-4.4460602 3.0937901 0.740358
-3.7514999 3.1488199 2.3058801
-4.6988201 3.05861 0.37256399
-4.4400001 3.1488199 2.3487799
-4.4460602 3.1436801 1.27721
-4.0559101 3.1488199 0.310249
-4.6988201 2.9166 1.1914901
-4.6988201 3.1051199 2.27209
-4.4102201 3.1488199 1.87105
-3.95103 3.1488199 1.85583
-4.0427999 3.1488199 1.01803
-4.58004 3.1122 1.40134
-4.1628499 3.1122 2.8984001
-4.1827698 3.1488199 1.02531
-4.6937599 3.1122 2.50105
-4.1820402 3.1488199 2.0052199
-4.6988201 2.98351 2.9416001
-4.47054 3.0755899 0.109838
-4.0468998 3.1488199 0.97826499
-4.6448498 3.1122 1.67916
-4.2594099 3.1488199 0.69911999
-4.6988201 2.9113801 0.97416002
-4.18751 3.1488199 0.35226801
-4.4221101 3.1488199 2.30913
-4.2554798 3.1488199 1.72726
-4.4460602 3.1327701 1.32306
-4.2483401 3.1488199 0.60449201
-4.1866698 3.1488199 1.9284
-4.02075 3.1488199 1.34398
-4.6988201 3.0548799 1.33092
-4.68608 3.1122 1.49238
-4.1142001 3.1488199 0.794945
-4.6988201 2.9779201 0.50558501
-3.83586 3.1488199 0.82808298
-4.5142202 3.1122 0.111365
-3.97596 3.1488199 2.2660501
-4.6988201 2.96543 0.98628402
-4.6217198 3.1122 0.273451
-4.5723 3.1122 2.7672701
-4.5398302 3.1122 0.871916
-3.9993 3.1488199 0.43197301
-3.8018999 3.1122 2.99317
-3.7906899 3.1488199 0.34790301
-4.50244 3.1122 1.94763
-4.16187 3.1122 2.74032
-4.2551699 3.1488199 1.97743
-3.75893 3.0852699 2.5072999
-4.38449 3.1488199 2.3682201
-3.7183599 3.1488199 0.66266698
-4.0117502 3.1488199 1.77386
-4.5282898 3.1122 0.58072698
-4.6261301 3.1122 0.33600199
-4.00108 3.1122 2.6981201
-4.5634398 3.1122 0.75755602
-4.6391902 3.1122 0.814592
-4.6988201 2.8857701 2.5838499
-4.3422999 3.1488199 1.07335
-4.1118398 3.1488199 1.97821
-4.4246402 3.1488199 2.16471
-4.4460602 3.07673 2.25087
-4.33323 3.1488199 1.05258
-4.6988201 3.0908799 0.80412501
-4.4471798 3.0755899 0.042653799
-4.6988201 2.87708 0.039427999
-4.4460602 3.1286099 2.21152
-4.6988201 3.0901599 2.8534801
-4.6988201 3.0350299 2.2799101
-4.3498402 3.1488199 1.65593
-4.6988201 3.0485899 2.1120601
-4.38552 3.1488199 1.76616
-4.6749301 3.1122 1.7541699
-4.3188801 3.1488199 1.90724
-4.6988201 3.02267 2.5664001
-4.1479201 3.1488199 0.33694801
-4.1749601 3.1488199 1.4744101
-4.15977 3.1122 2.87555
-4.4092598 3.1488199 0.72288603
-4.6988201 2.9632299 2.36519
-4.0987501 3.1488199 0.325858
-4.6410799 3.1122 0.280673
-4.6549902 3.1122 2.5908999
-4.6988201 3.07809 1.9034801
-4.6163402 3.1122 1.77938
-4.1444602 3.1279299 2.5072999
-4.50175 3.0789499 2.47176
-4.5416598 3.1122 2.0617099
-4.6988201 3.04443 0.89282298
-4.1760998 3.1122 2.7351301
-4.6272998 3.1122 1.36236
-4.50175 3.10534 1.83134
-4.2437901 3.1488199 0.65740299
-3.8677199 3.12571 2.56299
-4.4869099 3.0755899 1.34558
-4.6988201 2.89468 1.16423
-4.6988201 3.0258999 2.98824
-4.4460602 3.07954 0.86479902
-4.6988201 2.90609 2.42787
-4.6988201 2.96907 0.91683197
-4.62253 3.1122 2.66765
-4.5137 3.1122 0.72777498
-4.1602302 3.1488199 1.85296
-4.3632998 3.1488199 0.490251
-4.2393999 3.1488199 2.2740901
-4.2142401 3.1488199 0.024106899
-4.4556799 3.0755899 0.361763
-4.4730902 3.0755899 2.3922801
-4.2620401 3.1488199 0.0283312
-4.5778198 3.1122 0.63185799
-4.6988201 3.0515599 2.0898499
-4.2150102 3.1488199 0.75334901
-4.5780001 3.1122 0.597004
-4.2232599 3.1488199 1.27566
-3.9569399 3.1488199 2.2695601
-4.62535 3.1122 0.226473
-4.4949198 3.0755899 0.18784501
-4.6599498 3.1122 2.1288099
-4.6988201 2.9424 0.53789198
-4.5073199 3.1122 0.824067
-4.49225 3.0755899 1.21166
-4.0034299 3.1488199 1.33039
-4.125 3.1488199 1.6841201
-4.24154 3.1488199 0.479442
-4.1209602 3.1488199 0.53867197
-4.1762099 3.1122 2.60113
-4.6988201 2.9707 2.00331
-3.9456 3.1488199 0.79497999
-4.1842999 3.1488199 1.62608
-4.2677398 3.1488199 1.58354
-4.6655998 3.1122 0.76721901
-3.91398 3.1488199 2.2342501
-4.2613101 3.1488199 0.70047098
-4.2354498 3.1488199 0.066281497
-4.6988201 3.0149 2.48384
-4.6487398 3.1122 2.65591
-4.6988201 2.91817 2.1836801
-4.0943298 3.1488199 2.0496299
-4.6988201 3.0364001 2.26419
-4.26017 3.1122 2.8758399
-3.9825201 3.1488199 2.29019
-4.5186801 3.1122 0.15508901
-4.0646 3.1488199 1.0825
-4.5835199 3.1122 2.7929499
-4.6988201 2.9463301 2.0605199
-4.20927 3.1122 2.8132401
-4.6160202 3.1122 1.81975
-4.6988201 3.08797 0.0325034
-4.6988201 2.9470301 1.8924299
-4.1024299 3.1488199 1.08887
-4.3091002 3.1488199 2.20504
-3.9305501 3.1488199 1.1531
-4.2190199 3.1488199 1.2708
-4.22228 3.1122 2.94401
-4.07057 3.1488199 1.02794
-4.0419598 3.1488199 0.48444599
-3.86779 3.1488199 2.37795
-4.6442199 3.1122 1.9550101
-4.6988201 2.90694 1.01086
-4.6988201 2.9570701 1.26174
-4.44873 3.1122 2.79915
-4.6347499 3.1122 0.25584799
-4.3947001 3.1488199 0.26616901
-3.72926 3.1488199 1.37411
-4.6988201 2.9784501 0.99538702
-4.4050102 3.1122 2.73333
-3.8155401 3.1488199 0.31372201
-4.1547699 3.1488199 1.34058
-4.0718398 3.1488199 2.1052599
-4.0433798 3.1488199 1.183
-3.9545901 3.1488199 0.540465
-4.6988201 3.0785501 0.482705
-3.9096601 3.1488199 0.873577
-4.6988201 2.90627 0.43312001
-4.0507598 3.1488199 1.73189
-4.6988201 2.93908 0.38424
-4.6708002 3.1122 0.312186
-4.3548198 3.1488199 0.35296699
-4.6988201 2.8821399 0.76528901
-3.7305901 3.1488199 0.815341
-4.6988201 2.99035 2.43683
-4.6988201 2.99792 1.48287
-4.6324801 3.1122 0.082690001
-4.0517802 3.1488199 2.04125
-4.36339 3.1122 2.7000301
-4.0974302 3.1122 2.86514
-4.54915 3.1122 0.74844301
-4.4298902 3.1488199 2.4238901
-4.5051298 3.1122 1.75843
-4.6988201 3.0483699 2.17626
-4.6430202 3.1122 0.57387102
-4.1185799 3.1488199 2.1024001
-4.2883701 3.1488199 0.69246799
-4.6887798 3.1122 2.41346
-4.4611201 3.0755899 1.93803
-3.8657801 3.1488199 0.98532301
-4.5184999 3.1122 2.59273
-4.0852699 3.1488199 2.4163301
-3.7419801 3.1488199 1.8394099
-4.1094599 3.1488199 1.25755
-4.5566502 3.1122 2.24581
-4.5676398 3.1122 2.4730599
-3.8489799 3.0755899 2.5565701
-4.5212798 3.1122 1.46033
-3.8243599 3.1488199 0.88781202
-4.50175 3.1410699 2.28334
-4.2024102 3.13851 2.5072999
-4.2404199 3.1122 2.74436
-4.1202998 3.1488199 1.6731
-4.3893099 3.1488199 1.81979
-4.5289001 3.1122 1.92099
-4.4791698 3.0755899 1.29486
-3.8396499 3.1488199 0.90997702
-4.3051 3.1488199 0.071868502
-4.19206 3.0755899 2.5211101
-3.8682301 3.1488199 0.97083402
-4.2182798 3.1488199 0.34623501
-4.07652 3.1488199 0.95433497
-4.6131701 3.1122 0.80928499
-4.50175 3.10763 1.76127
-4.2121401 3.1488199 0.323268
-4.6988201 2.98843 0.27648601
-4.6988201 2.9566 2.1100099
-4.6988201 3.05494 2.6182001
-4.4135299 3.1488199 1.2352999
-4.64396 3.1122 0.464645
-4.2206402 3.1488199 0.302762
-3.9620299 3.1488199 1.82263
-3.8169799 3.1122 2.6163199
-4.0395298 3.1488199 1.8461699
-4.53792 3.1122 0.60874999
-4.49686 3.1122 2.7678599
-4.50175 3.14259 0.077824399
-4.6988201 2.91572 0.609079
-4.4403701 3.1488199 2.2434399
-3.8683 3.1488199 0.53368098
-4.17274 3.1488199 0.22242001
-4.6430202 3.1122 0.57387102
-4.4326 3.1488199 0.77515298
-4.6988201 3.10373 0.25617701
-4.4460602 3.0991299 0.141039
-4.6002402 3.1122 2.5358801
-4.50175 3.14271 0.165849
-4.4672699 3.0755899 2.50438
-4.10112 3.1488199 0.43010601
-4.5447998 3.1122 2.7272699
-4.5788999 3.1122 0.24930701
-3.7776101 3.1488199 0.50929898
-3.9296701 3.1488199 1.05039
-4.6988201 2.92434 2.50859
-4.6988201 2.96645 1.12823
-3.8771901 3.1488199 1.87301
-4.64675 3.1122 2.0337501
-4.5193 3.1122 2.529
-4.0339198 3.1488199 2.0601001
-3.96522 3.1488199 1.21526
-4.50175 3.13135 2.21489
-4.3193898 3.1488199 0.53009701
-4.6779499 3.1122 2.1152699
-4.2515502 3.1488199 0.55785102
-3.79637 3.1488199 1.3263
-4.1360002 3.15975 2.56299
-3.80129 3.1488199 2.50158
-4.1346102 3.1488199 2.34373
-4.6261802 3.1122 1.46847
-4.6988201 2.90412 3.0351801
-4.4460602 3.0940001 0.78416401
-4.6988201 2.9451201 1.33217
-4.50175 3.1122301 0.14084999
-4.6988201 2.8850999 0.13702001
-4.2009802 3.1488199 2.3961201
-4.4828701 3.0755899 0.75598902
-4.23037 3.1488199 1.4963599
-4.1995001 3.1488199 0.60633802
-4.6988201 2.96895 0.41426501
-4.6988201 3.10448 2.39779
-4.50175 3.15677 0.46946499
-4.2878299 3.1488199 0.174473
-4.1893001 3.1488199 0.816167
-3.8094699 3.0987699 2.5072999
-4.4839802 3.1122 2.6637299
-4.6988201 3.0852399 2.3320799
-4.6674199 3.1122 0.50268799
-4.6988201 3.1011801 0.109227
-4.6544499 3.1122 1.5317
-3.7243299 3.1488199 0.62679398
-4.40626 3.1488199 0.479379
-4.6988201 2.9592099 2.9089999
-3.89413 3.1122 2.6759701
-4.6988201 2.9398501 1.22078
-3.9609101 3.1488199 1.26683
-4.4168301 3.1488199 0.19030701
-4.59411 3.1122 0.67286301
-4.6988201 2.95315 0.77404499
-3.97211 3.1488199 2.1698
-4.6988201 3.0708699 2.9632599
-4.50175 3.11044 1.7208
-4.6988201 3.0481701 2.3670499
-4.18893 3.1488199 0.445144
-3.79529 3.1488199 0.52532202
-3.95825 3.1488199 1.0061001
-4.6423702 3.1122 2.8199501
-4.2407498 3.1488199 0.106148
-4.50175 3.1594801 2.14551
-4.1559 3.1488199 1.79805
-3.9261799 3.1488199 2.2739699
-4.3762398 3.1488199 2.30655
-4.3252001 3.1488199 1.70819
-4.49367 3.0755899 1.98422
-4.6506801 3.1122 1.3906
-4.0180802 3.1488199 2.1166401
-4.4460602 3.0959201 2.12218
-4.0894098 3.1488199 1.0706
-4.5531902 3.1122 0.56123501
-4.1876202 3.1488199 2.4507899
-4.6988201 2.9746499 2.23664
-4.3610001 3.1488199 0.54233801
-4.69168 3.1122 0.45807499
-4.2065802 3.1488199 1.24368
-4.6549902 3.1122 2.5908999
-4.3845901 3.1488199 1.6514601
-4.4691501 3.0755899 1.72996
-3.7406199 3.10128 2.56299
-4.0355 3.1488199 0.30487999
-4.2192502 3.1488199 0.56497103
-3.7606699 3.1488199 0.80334902
-4.6988201 2.8947301 2.3357401
-4.2537599 3.1488199 0.55105698
-4.5672698 3.1122 0.484155
-4.0388598 3.1488199 1.95767
-3.71608 3.1488199 1.48832
-4.1585598 3.1488199 1.26256
-4.6988201 3.02514 1.31767
-4.2887602 3.1488199 1.61844
-3.8459499 3.1488199 0.33539501
-4.2532201 3.1488199 0.79455501
-4.3907199 3.1122 2.65238
-4.6988201 3.1099 1.3385
-4.4943099 3.0755899 2.3394899
-4.2091599 3.1488199 1.61294
-4.3611498 3.1488199 0.21030401
-4.6988201 3.0892501 0.098913699
-4.6988201 3.0639 1.73479
-4.6988201 2.95894 2.2318001
-4.5426202 3.1122 1.2873501
-4.4903202 3.0755899 1.76601
-4.6988201 3.0425401 0.348371
-3.8394799 3.1488199 1.85572
-4.2267399 3.1488199 1.49797
-3.9264801 3.1488199 1.23049
-4.2210999 3.1488199 1.59922
-4.6988201 3.00541 0.77084798
-4.50175 3.13414 0.80395198
-4.6243801 3.1122 1.6167901
-4.6988201 3.0748401 2.5218301
-4.42031 3.1488199 2.3445001
-4.55899 3.1122 1.32145
-4.6988201 2.97085 3.03088
-4.6988201 3.0861101 0.72055501
-4.2716198 3.1488199 1.69259
-3.86376 3.1122 2.5669999
-4.50175 3.12341 0.82287502
-4.6988201 2.9486201 0.915169
-4.6988201 2.9072499 2.7467699
-4.6988201 2.9555399 1.3335201
-4.6213498 3.1122 2.3713901
-4.1097498 3.1488199 2.0390601
-4.58217 3.1122 1.58915
-4.02175 3.1488199 1.8362499
-4.2971902 3.1488199 0.84643298
-4.65657 3.1122 2.7583499
-4.6988201 2.95838 1.1953599
-4.6722298 3.1122 1.76363
-4.2309299 3.1488199 0.88051301
-4.0716901 3.1122 2.85321
-4.6988201 2.9679999 0.207932
-3.86393 3.1488199 0.30927101
-4.5135198 3.1122 0.61492097
-4.50175 3.1481299 0.69891602
-4.50175 3.1501 0.70022601
-3.9825101 3.1488199 0.40314201
-4.32235 3.1488199 0.192637
-4.53933 3.1122 2.2525799
-4.26401 3.1488199 1.68405
-4.6708002 3.1122 0.312186
-4.6988201 3.0760601 2.5715799
-4.2090302 3.1122 2.98155
-4.6002402 3.1122 2.5358801
-4.4061098 3.1488199 2.3973401
-4.2683601 3.1488199 2.2646401
-4.6988201 2.9566 2.1100099
-3.98399 3.1488199 0.45650399
-4.6329098 3.1122 0.277147
-4.49757 3.0755899 1.48017
-4.1132102 3.1488199 0.65917599
-4.4250998 3.1488199 0.62836403
-4.3326402 3.1488199 1.2916
-4.6511798 3.1122 0.67335701
-4.1780701 3.1488199 1.87221
-4.6988201 2.97279 2.56264
-3.9769101 3.1488199 2.2960501
-4.6988201 2.97645 2.7957599
-4.50175 3.1071301 0.49659401
-4.0426202 3.1488199 1.11615
-4.3816299 3.1488199 1.86085
-4.6988201 3.0838599 0.86917299
-4.4546199 3.0755899 2.27408
-4.6988201 2.9635401 3.0230701
-3.7519901 3.1488199 0.45078799
-4.1252098 3.1488199 1.27397
-4.6988201 2.9408801 2.71456
-4.5695801 3.1122 1.36353
-4.46527 3.0755899 1.24415
-4.50175 3.1579001 2.4544799
-4.6209502 3.1122 1.72638
-4.5833001 3.1122 1.8415101
-3.73997 3.1328299 2.56299
-4.4289498 3.1488199 0.087625302
-4.2249999 3.1488199 1.29695
-4.2402601 3.1488199 0.085625596
-4.1437201 3.1488199 1.44657
-4.5556302 3.1122 0.56750298
-4.5700002 3.1122 0.82135499
-4.50175 3.1094201 1.44458
-4.4984498 3.0755899 1.91786
-3.7557001 3.1158299 2.56299
-4.6988201 3.0316601 0.19227999
-4.5151501 3.1122 2.0276799
-4.47576 3.1122 2.80809
-4.0953102 3.1488199 1.31657
-4.3165302 3.1488199 1.39882
-4.4018698 3.1488199 2.20327
-4.14046 3.1488199 0.46547899
-4.3283401 3.1488199 1.02371
-4.4721498 3.0755899 1.40648
-4.0133801 3.1122 3.0220201
-4.20859 3.1488199 2.3403699
-3.7480099 3.1488199 1.88943
-4.4899602 3.0755899 0.73853397
-4.4460602 3.10146 2.4696901
-4.1693902 3.1488199 2.16256
-4.1626701 3.1488199 2.45205
-4.50175 3.14274 0.096936002
-4.4494801 3.1122 2.60517
-3.90517 3.1488199 1.7883101
-4.6988201 2.97085 3.03088
-4.6988201 2.9303501 0.072713099
-4.65311 3.1122 0.14119899
-4.41079 3.1488199 1.72492
-4.6988201 3.09953 0.226824
-4.1853199 3.1488199 1.05286
-4.55972 3.1122 1.28915
-4.5187101 3.1122 1.40346
-4.6282201 3.1122 2.85306
-3.9509399 3.1122 3.01458
-4.5197001 3.1122 2.53456
-4.6982198 3.1122 2.3591101
-4.4460602 3.1398499 1.49017
-3.8810999 3.1122 2.9777999
-4.6370301 3.1122 1.53522
-4.0413198 3.1488199 2.2098899
-4.6876998 3.1122 0.70300901
-4.6173601 3.1122 2.73107
-4.6370902 3.1122 0.121232
-4.50175 3.1394501 2.33429
-4.6988201 2.9623101 2.8106899
-3.7774799 3.1488199 1.85508
-3.83586 3.1488199 0.82808298
-4.2117701 3.1488199 0.82324702
-4.50175 3.0794401 0.87025702
-4.5468202 3.1122 1.30323
-4.6988201 2.9802301 2.0165801
-4.3973899 3.1488199 1.16848
-4.1933298 3.1488199 1.49591
-4.0812101 3.1488199 1.19234
-4.6988201 3.04498 2.0624499
-4.4691501 3.0755899 1.72996
-4.1693902 3.1488199 2.16256
-3.95748 3.1488199 0.86580002
-4.2349 3.1488199 2.1069901
-4.6448002 3.1122 0.85377002
-4.6693501 3.1122 2.0766101
-4.5662699 3.1122 1.8171901
-4.6988201 2.9396501 0.060533501
-4.6988201 2.93753 1.12369
-4.1085501 3.1488199 0.92371601
-3.9442201 3.1488199 1.36593
-4.6599498 3.1122 2.1288099
-4.50175 3.15064 2.2948599
-4.6988201 2.8901999 2.7888801
-4.4460602 3.11728 2.18593
-4.4040098 3.1488199 2.1558599
-4.6988201 3.0325999 1.58957
-4.6982598 3.1122 1.36422
-4.6988201 3.05861 0.37256399
-4.2701702 3.1488199 1.59542
-4.6988201 3.06003 0.266397
-4.5753198 3.1122 2.1070199
-4.6988201 2.97506 0.68755299
-4.4460602 3.09442 0.088827103
-4.6988201 2.88622 0.85267699
-4.4865799 3.1122 2.7432001
-4.6988201 2.90732 0.93329197
-4.2368102 3.1488199 0.65965199
-4.1434698 3.1488199 2.35216
-4.4233298 3.1488199 1.21708
-4.4738598 3.0755899 2.3725901
-4.0081401 3.1488199 2.1108601
-4.6551099 3.1122 0.86007798
-4.4460602 3.1464 2.4820499
-4.03336 3.1488199 2.0975499
-4.50175 3.13135 2.21489
-4.6601901 3.1122 1.6239901
-4.0439801 3.1488199 0.83697599
-4.6988201 2.94994 0.16028801
-4.50175 3.0843301 0.66131598
-4.0651898 3.1488199 2.3163099
-4.6988201 2.89889 1.00061
-4.6988201 2.96066 1.19698
-3.7755301 3.09867 2.5072999
-4.50175 3.1026599 0.787893
-4.4383302 3.1488199 0.85249698
-4.3833699 3.1488199 1.465
-4.1511202 3.1488199 2.224
-4.0510502 3.1488199 1.5749
-4.2562799 3.1122 2.7123899
-4.1803002 3.1488199 0.149867
-4.2087002 3.1488199 0.82702798
-4.5385499 3.1122 0.64693499
-4.3426499 3.1488199 0.301855
-4.4864998 3.1122 2.6463499
-4.56672 3.1122 2.05144
-4.0125999 3.1488199 0.715487
-4.2465801 3.1488199 1.54545
-4.4460602 3.1019499 1.44086
-4.6988201 2.9346199 1.50445
-4.6988201 2.97013 1.3742501
-3.7539101 3.1488199 0.83703101
-3.79002 3.1562099 2.56299
-4.4477 3.0755899 1.39066
-4.6988201 2.9888101 1.13235
-4.4460602 3.13079 0.47691101
-4.0436702 3.1488199 0.585356
-4.45575 3.0755899 0.22188701
-4.6988201 3.1017101 1.47874
-4.5475402 3.1122 0.96505702
-4.2185602 3.1488199 0.69188499
-4.6414099 3.1122 1.67185
-4.3842802 3.1488199 0.76688999
-4.08391 3.1122 2.8251801
-4.3971 3.1488199 2.15576
-4.6988201 2.8843601 0.62725198
-4.6988201 3.0179701 2.09499
-4.3746901 3.1488199 2.1872201
-4.50175 3.1431 0.637025
-4.6988201 2.90572 2.9771199
-4.4927702 3.0755899 1.281
-4.6988201 2.9711499 0.39372399
-3.97807 3.1488199 0.89467603
-4.4927902 3.0755899 0.465157
-4.6988201 3.00775 0.31703299
-4.5419102 3.1122 2.1758599
-4.45648 3.1122 2.5996399
-3.8534999 3.1488199 1.7894599
-4.4460602 3.1345201 1.31944
-4.6825399 3.1122 1.54723
-4.07412 3.1488199 2.2985599
-3.7746201 3.1488199 0.53613102
-3.98365 3.1488199 2.19978
-4.3228798 3.1488199 0.51803398
-4.0770998 3.1488199 1.32962
-4.1614799 3.1488199 2.4902101
-3.9386599 3.1488199 0.52979898
-4.5183301 3.1122 2.81546
-4.50175 3.1327 0.81018198
-4.35536 3.1488199 0.87725103
-4.4918098 3.0755899 2.3970499
-4.1235099 3.1488199 0.53149801
-3.8960299 3.1488199 2.32776
-4.2816901 3.1488199 0.48321301
-4.50175 3.1197701 0.684901
-4.4921498 3.0755899 1.1991301
-3.7576599 3.1488199 1.43322
-4.6988201 2.96244 2.4044299
-4.5768299 3.1122 0.84690201
-4.4562702 3.0755899 1.8753099
-4.2947602 3.1488199 0.266377
-4.6988201 2.9981401 0.381152
-4.2820401 3.1488199 0.222808
-4.62535 3.1122 0.226473
-4.50175 3.0991499 2.3385501
-4.6584101 3.1122 1.50204
-4.61935 3.1122 1.76687
-4.4836898 3.0755899 1.875
-3.82007 3.1488199 2.3992
-4.6988201 3.00054 0.042218
-4.6966901 3.1122 0.37042499
-4.6988201 3.10359 0.61875302
-4.2923899 3.1488199 0.25054601
-4.6988201 2.90253 1.09041
-4.6988201 3.0962901 2.72596
-4.6988201 3.06762 2.4077499
-4.51474 3.1122 1.90307
-3.93244 3.1488199 0.81960702
-4.2947798 3.1488199 0.019038601
-4.3178501 3.1488199 1.37175
-4.4460602 3.13079 0.47691101
-4.4460602 3.14393 2.15746
-4.1323299 3.1488199 0.62783402
-3.83355 3.1488199 0.47022501
-4.4460602 3.0859001 1.41291
-4.6988201 2.9332199 2.4368
-4.6988201 3.0576501 2.0935299
-4.5503702 3.1122 0.225538
-4.5319099 3.1122 2.27881
-3.9111199 3.1488199 0.98288202
-4.39186 3.1122 2.74979
-4.3678899 3.1122 2.77385
-4.6988201 2.9444699 2.2457099
-4.59304 3.1122 0.86127597
-4.3219399 3.1488199 0.64350301
-4.4983201 3.0755899 1.7458
-4.6988201 2.9138701 2.3636401
-4.5714698 3.1122 1.95661
-4.6988201 2.9576399 2.08147
-4.4435101 3.0755899 2.5327599
-4.6988201 2.9228899 2.6043501
-4.3839898 3.1488199 1.15598
-4.01614 3.1122 2.9144399
-4.5753899 3.1122 0.79830903
-4.24998 3.1488199 1.38354
-4.18751 3.1488199 0.35226801
-4.4597201 3.0755899 2.2565701
-4.6988201 3.0792 2.17062
-4.2142601 3.1488199 0.818479
-3.79195 3.1488199 2.2984099
-4.50175 3.0947199 0.67354202
-4.46313 3.0755899 1.37043
-4.5669599 3.1122 0.142718
-4.57268 3.1122 0.93853903
-3.9219799 3.1488199 2.3219399
-4.2638698 3.1488199 1.8216701
-4.6988201 3.0954299 2.4345601
-4.5696702 3.1122 0.13609099
-4.0531998 3.1488199 2.0336699
-3.8602099 3.1122 2.6294899
-4.6384501 3.1122 1.53053
-4.3088498 3.1488199 1.47294
-4.47474 3.1554799 2.56299
-4.2964201 3.1488199 2.3067801
-4.4460602 3.0791299 0.54067397
-3.9404299 3.1488199 1.35927
-4.50175 3.0980599 1.89826
-4.0991902 3.1488199 0.47276399
-4.0685301 3.1488199 1.43756
-4.5721798 3.1122 1.38155
-4.6988201 3.0155201 2.9437399
-4.0773301 3.1488199 0.55174702
-4.36058 3.1488199 0.339894
-3.8960299 3.1488199 1.34499
-4.6988201 3.09921 0.521891
-3.8326001 3.1122 2.59254
-4.0564198 3.1488199 1.42072
-4.6988201 3.0464201 2.03526
-4.2814102 3.1488199 2.10834
-3.9405999 3.1488199 0.97045797
-4.6988201 2.9303501 0.072713099
-4.2350602 3.1488199 1.04603
-3.9722099 3.1488199 0.98496699
-4.1633101 3.1488199 1.08579
-4.0310102 3.1488199 1.6074899
-4.6028099 3.1122 0.39550999
-4.2234602 3.1488199 0.86835098
-4.5760698 3.1122 2.1674399
-4.6915498 3.1122 2.6086099
-4.6466899 3.1122 2.37307
-4.6988201 2.9491401 1.9985
-4.6988201 3.09027 2.1422901
-4.50175 3.12166 0.84838402
-4.4523702 3.0755899 0.173289
-3.98072 3.1488199 0.963673
-4.3050699 3.1488199 0.41776201
-4.0088201 3.1488199 0.79260099
-4.6988201 2.90838 0.45790601
-4.0250201 3.1488199 0.30906501
-4.1814299 3.1488199 1.6713901
-4.6988201 3.0132999 2.69416
-4.50175 3.1558499 0.157754
-4.6686802 3.1122 2.5223401
-4.6263599 3.1122 1.25887
-3.80531 3.1122 2.6160901
-4.1188798 3.1122 2.65153
-3.8277299 3.1488199 0.51578802
-4.50175 3.0841501 1.38592
-4.3983898 3.1488199 1.79884
-4.4453402 3.1488199 1.76052
-4.6988201 3.0641201 0.59714901
-4.4094901 3.1122 2.5913501
-4.6988201 2.9730101 2.81269
-4.1142602 3.1488199 1.6277
-4.02917 3.1488199 0.51378202
-4.3433399 3.1488199 2.1601901
-4.3937702 3.1488199 1.83039
-3.87848 3.1488199 0.248795
-4.6278901 3.1122 1.8692
-4.4412899 3.1113801 2.5072999
-4.2309299 3.1488199 0.88051301
-4.6988201 2.8791001 0.38884699
-4.5247302 3.1122 2.5474999
-4.57693 3.1122 0.65292299
-3.78264 3.1470499 2.56299
-4.2933502 3.1488199 0.01295
-3.9718499 3.1488199 1.29668
-4.50175 3.15448 0.95314699
-4.2818699 3.1488199 1.24717
-4.5914202 3.1122 0.85482597
-3.76565 3.10308 2.56299
-4.6988201 2.94344 0.197625
-4.5835299 3.1122 0.51398301
-4.2484398 3.1122 2.91679
-4.4460602 3.1100199 1.81514
-3.9016199 3.1488199 2.28932
-4.6988201 3.0788701 1.6169
-4.3446002 3.1488199 0.74295002
-4.50175 3.14606 2.5568399
-4.6988201 3.01266 1.22913
-3.78917 3.1488199 2.35361
-4.6988201 2.9951 1.20016
-4.5217099 3.1122 0.27604201
-4.4131799 3.1488199 1.44183
-4.6988201 3.0712199 1.74361
-4.4405599 3.1488199 2.28054
-4.4460602 3.1330299 2.31601
-4.1251702 3.1488199 0.93063402
-4.5865998 3.1122 0.396063
-4.1458502 3.1488199 0.73508799
-4.60572 3.1122 1.49273
-4.6988201 2.88711 1.30643
-4.4460602 3.0897801 0.90636599
-4.6669502 3.1122 2.4871199
-4.6988201 3.03543 0.104924
-4.6988201 2.8708 0.95208901
-4.4369302 3.1122 2.76215
-4.6645098 3.1122 0.0686405
-3.9787199 3.1488199 1.2352099
-4.6988201 2.98594 3.01162
-4.6988201 3.1056499 2.34584
-4.57552 3.1122 0.46821699
-4.3041201 3.1488199 1.84902
-4.3998699 3.1488199 1.7016
-4.6988201 2.90836 0.14418
-4.2632699 3.1488199 0.70020097
-4.1491499 3.1488199 1.81455
-4.6988201 2.97576 0.051374201
-3.98157 3.1488199 2.2061501
-4.3874698 3.1488199 0.57517099
-4.5187001 3.1122 1.50291
-4.0011401 3.1488199 1.6744
-4.3818102 3.1122 2.7893901
-4.0819201 3.1488199 0.40390301
-4.1431799 3.1488199 2.4061201
-4.3641601 3.1488199 0.52619803
-4.6988201 2.9433701 0.20674901
-3.75841 3.1122 2.7665999
-4.6988201 2.9296601 2.2596099
-4.2291098 3.1488199 0.34849799
-4.2522702 3.1488199 2.0491199
-3.8008299 3.1488199 1.32458
-4.6988201 3.07355 1.7758
-3.7516301 3.13749 2.56299
-4.6988201 3.0802701 0.246857
-4.4460602 3.0808401 2.14779
-4.6988201 2.94681 1.59812
-4.1434698 3.1488199 2.35216
-4.6988201 3.03756 2.91344
-4.2484899 3.1488199 0.95806903
-4.6988201 3.05881 2.3575799
-4.3618498 3.1488199 0.14755499
-4.04316 3.1488199 0.80684602
-4.31846 3.1488199 2.30128
-4.3750501 3.1488199 0.19898701
-4.5725002 3.1122 1.81876
-4.2899599 3.1122 2.7253001
-3.8677199 3.12571 2.56299
-4.6242499 3.1122 2.1833401
-3.9677401 3.1488199 1.84588
-4.50175 3.0857301 0.64815301
-4.3820601 3.1488199 0.50408
-4.50175 3.1003599 0.215712
-4.6988201 2.9997799 1.9733
-4.3828001 3.1488199 0.80147099
-4.5714698 3.1122 1.95661
-4.4241199 3.1488199 1.4320101
-4.41996 3.1488199 0.80937999
-4.00525 3.1488199 0.461983
-4.0081401 3.1488199 2.1108601
-4.4559598 3.12117 2.56299
-4.5176401 3.1122 1.2206399
-4.6988201 2.9468 2.35567
-3.80354 3.09337 2.56299
-4.6988201 2.9424801 2.1508701
-4.1142001 3.1488199 0.794945
-4.2188401 3.1488199 1.44525
-4.15132 3.1488199 1.28127
-3.76863 3.1419899 2.5072999
-4.2386899 3.1488199 0.043917701
-4.4614801 3.0755899 2.2804301
-3.9921801 3.1488199 1.10646
-4.3580098 3.1488199 2.30088
-3.92237 3.1122 2.6041999
-3.9144101 3.1488199 0.0183287
-4.1359701 3.1488199 0.70937902
-4.3601499 3.1488199 2.4023299
-4.50175 3.14273 0.189237
-4.6363802 3.1122 2.22648
-4.58319 3.1122 2.20837
-3.7706699 3.1488199 0.456617
-4.4646401 3.0755899 0.88911402
-4.2530298 3.1488199 1.06712
-3.8272901 3.1488199 0.46098199
-4.0251298 3.1488199 2.0994999
-4.2407598 3.1122 2.8057301
-4.2715502 3.1122 2.8552401
-4.6988201 2.98963 1.88572
-4.5978398 3.1122 0.94619203
-4.6740599 3.1122 1.67795
-4.5360198 3.1122 1.29125
-4.10043 3.1122 2.8029599
-4.6988201 2.9148901 1.3775001
-4.66998 3.1122 2.7727301
-4.4460602 3.14587 0.42850101
-4.2277002 3.1488199 1.51222
-4.5695801 3.1122 1.36353
-3.8657801 3.1488199 0.98532301
-4.27599 3.1488199 0.51399702
-4.6150298 3.1122 0.50361598
-4.3633699 3.1488199 1.846
-4.6988201 3.0083101 2.6136401
-4.4463501 3.0755899 1.16969
-4.2694702 3.1488199 1.16212
-4.5971498 3.1122 1.68857
-4.50175 3.1560099 1.46231
-3.87199 3.1488199 0.92114002
-3.8449199 3.1488199 1.3386101
-3.9367299 3.1488199 1.13226
-4.6988201 2.8992701 0.886356
-4.1925402 3.1488199 1.5999
-4.55899 3.1122 2.1697099
-4.25456 3.1122 2.88129
-3.75876 3.1488199 1.32631
-4.50175 3.12096 0.78397101
-4.42489 3.1488199 0.638538
-4.35606 3.1488199 0.206631
-4.5945401 3.1122 2.53667
-4.34027 3.1488199 1.63043
-4.6988201 2.98054 1.6226701
-4.4460602 3.1264601 1.36996
-4.6710801 3.1122 0.191355
-4.6988201 3.05937 1.54783
-4.1424398 3.1488199 1.64581
-4.50175 3.0913899 0.20469899
-4.6988201 3.0771699 0.54257601
-4.6988201 2.9948599 0.59890902
-3.74157 3.0755899 2.5169899
-4.3165302 3.1488199 1.39882
-4.23037 3.1488199 1.4963599
-3.7555499 3.1488199 2.3845699
-4.0468998 3.1488199 0.97826499
-4.26157 3.1488199 1.14771
-4.2473502 3.1488199 0.59013402
-3.84272 3.1488199 2.4215801
-4.4362798 3.1488199 0.32881901
-3.7844701 3.1488199 0.91258299
-4.2586799 3.1488199 1.95136
-4.50175 3.08111 0.85616201
-4.6223202 3.1122 2.6531899
-4.4527302 3.0755899 0.367237
-4.16536 3.1488199 1.25931
-4.08114 3.1488199 1.45304
-4.50175 3.0980599 1.89826
-4.50175 3.0852599 1.30741
-4.2425399 3.1488199 0.66161799
-3.7644601 3.1488199 2.3055999
-4.6988201 2.9368401 0.27987
-4.5700498 3.1122 1.56993
-4.50175 3.12989 1.22294
-4.6988201 2.95697 1.97369
-4.6988201 2.9231 3.02526
-4.49575 3.1122 2.75334
-4.6988201 2.93753 1.12369
-4.6490102 3.1122 1.43779
-4.43012 3.1488199 2.49562
-4.50175 3.1359999 0.39527801
-4.6988201 2.9962599 2.3002501
-4.57897 3.1122 1.44364
-4.6272602 3.1122 1.42766
-4.6988201 2.9287801 0.293136
-4.6988201 2.9012301 0.62106103
-4.6722298 3.1122 1.76363
-3.9828899 3.1488199 0.81191301
-3.9098499 3.1122 2.6460299
-3.9674101 3.1122 3.0318899
-4.20436 3.1488199 0.82631302
-4.50175 3.13624 0.094163097
-4.6342902 3.1122 0.81431103
-4.1970401 3.1488199 0.064377502
-4.6988201 3.1057899 0.406652
-4.4460602 3.1152301 0.91101003
-4.6988201 2.9244001 0.430282
-4.4510198 3.0755899 0.072049104
-4.6988201 2.8987 0.34700999
-4.1783099 3.1122 2.59477
-4.21488 3.1488199 0.258205
-4.3826199 3.1488199 1.44206
-3.8825099 3.1488199 2.3825099
-4.18293 3.1488199 0.80400598
-4.50175 3.0764501 1.29905
-4.27175 3.1488199 0.33937299
-4.56005 3.1122 2.7797501
-4.4149599 3.1488199 0.63413203
-4.6591601 3.1122 1.33662
-4.6430202 3.1122 0.57387102
-4.50175 3.1407199 0.62219203
-4.4635 3.0755899 0.21797
-3.95016 3.1488199 1.81537
-4.6988201 3.0588601 0.25828701
-4.6988201 2.98438 2.8150899
-4.2704201 3.1488199 2.16663
-4.02947 3.1488199 1.26423
-4.4460602 3.11077 1.8602099
-4.6346998 3.1122 2.2283199
-4.4246702 3.1488199 0.28033599
-4.5850501 3.1122 0.14462601
-4.6988201 2.9487 0.48638499
-4.2464099 3.1488199 1.50219
-4.57867 3.1122 0.88498098
-4.6988201 2.9742999 2.08986
-3.96749 3.1488199 1.8657
-4.6472702 3.1122 0.43713099
-3.7423601 3.1192501 2.5072999
-4.41082 3.1488199 2.2189801
-4.6988201 2.8878701 2.1303899
-4.2407598 3.1122 2.8057301
-4.5734901 3.1122 2.1344299
-4.6988201 3.08797 0.0325034
-4.50175 3.0992601 0.28365701
-4.4460602 3.11971 2.40944
-4.6517301 3.1122 2.02564
-4.4463401 3.0755899 1.22233
-4.2543602 3.1488199 0.015846601
-4.5566201 3.1122 2.5090799
-4.0627098 3.1488199 1.97764
-4.4460602 3.11075 1.18048
-4.28932 3.1488199 2.16978
-4.2632198 3.1122 2.8915
-4.24473 3.1488199 1.03837
-4.10148 3.1488199 1.76006
-3.7409599 3.1488199 1.40794
-4.31183 3.1488199 0.44857001
-4.6988201 2.9844899 2.20048
-4.54497 3.1122 0.55056101
-3.79916 3.1488199 0.537009
-4.0011401 3.1488199 1.6744
-4.6020498 3.1122 2.5816
-4.6988201 3.02316 2.07354
-4.4937401 3.0755899 1.4660701
-4.6988201 3.0840199 0.18724599
-4.0571699 3.1488199 1.89265
-4.12886 3.1488199 0.39727399
-4.04777 3.1488199 1.96392
-4.50175 3.1570301 0.20511501
-3.9367399 3.1488199 1.067
-4.64083 3.1122 0.34795001
-4.0090299 3.1488199 0.39671701
-4.50175 3.1436701 2.2286999
-4.50175 3.0991001 2.29775
-4.0130901 3.1488199 1.86099
-3.97791 3.1488199 0.52832597
-3.9712501 3.1488199 1.03334
-4.1051102 3.1488199 0.747549
-4.1343098 3.1488199 2.286
-4.6988201 3.0948999 2.67873
-4.6854501 3.1122 1.35681
-4.5296698 3.1122 2.8428099
-4.50175 3.0964601 0.81110001
-4.1774101 3.1488199 0.86363697
-3.77226 3.1122 2.72505
-4.0166702 3.1488199 2.0222001
-4.0034299 3.1488199 1.33039
-4.42906 3.1488199 1.31153
-4.50175 3.1343801 2.3501401
-4.4460602 3.1041801 1.25175
-4.6052799 3.1122 2.47877
-4.44802 3.0755899 0.431061
-4.4241199 3.1488199 1.4320101
-4.50175 3.0791299 0.53749299
-4.5833001 3.1122 1.8415101
-4.0790701 3.1488199 2.2163301
-4.6988201 3.08973 0.163881
-4.6988201 3.0077 1.19117
-4.1445398 3.1122 2.9444201
-4.6988201 2.89291 0.70993799
-4.6358199 3.1122 0.135876
-4.6988201 3.10199 0.78330499
-4.3633399 3.1488199 1.23605
-4.0065999 3.1488199 1.1065
-4.1970401 3.1488199 0.80079901
-3.9064801 3.1488199 0.84999698
-4.41397 3.1488199 2.4574599
-4.1421099 3.1122 2.8668001
-4.6988201 3.0506201 2.75179
-3.77718 3.1122 2.68063
-3.9356599 3.1488199 1.0053
-4.6988201 2.98932 1.57224
-4.57057 3.1122 0.35059699
-4.50175 3.15818 2.50089
-4.65767 3.1122 0.041497599
-4.6988201 2.91839 2.7495699
-3.73123 3.1488199 1.90561
-4.50175 3.0959499 2.1489999
-4.6536198 3.1122 2.80918
-4.6907501 3.1122 0.601219
-3.7278199 3.1488199 0.54091698
-3.8396499 3.1488199 0.90997702
-4.06006 3.1488199 0.85435098
-4.50175 3.11883 0.535478
-4.1819701 3.1488199 0.86164302
-4.6988201 3.06497 2.6342101
-4.3910699 3.1488199 0.77085102
-4.6988201 2.9241099 2.7337999
-4.3320198 3.1488199 0.69135201
-4.4460602 3.0889399 1.4195
-4.2672901 3.1488199 2.2365301
-4.0162802 3.1122 2.72264
-4.6988201 3.0784099 0.64082497
-4.6988201 3.0244999 0.70108801
-4.4706602 3.1122 2.7680399
-4.3178501 3.1488199 1.37175
-4.6988201 3.07371 1.5079499
-4.5811901 3.1122 0.57971197
-4.6524 3.1122 0.81946099
-4.3249898 3.1488199 1.56365
-4.0327301 3.1488199 1.05818
-3.7305 3.1122 2.89308
-4.16434 3.1122 2.8083601
-4.0640602 3.1488199 1.8647701
-3.9583499 3.1488199 1.8381799
-4.6663499 3.1122 2.5206399
-4.4460602 3.1242099 2.2187099
-4.4730902 3.0755899 2.3922801
-4.6988201 2.87708 0.039427999
-4.1222301 3.1488199 0.388877
-4.50175 3.1391599 2.4384601
-3.9376299 3.1488199 1.00271
-4.6988201 2.91259 1.09499
-3.99525 3.1488199 1.07275
-4.1626701 3.1488199 2.45205
-3.9751899 3.1488199 0.318041
-4.6380901 3.1122 2.8524699
-4.3196802 3.1488199 1.24112
-4.19942 3.1488199 0.177991
-4.3011098 3.1488199 1.7386301
-4.2672701 3.1488199 0.72296399
-4.6806302 3.1122 2.4916401
-4.1834898 3.1488199 1.16418
-4.2217398 3.1488199 1.83257
-4.6988201 3.08395 2.0283899
-4.0227699 3.1488199 0.478663
-4.1631098 3.1122 2.7974701
-3.84624 3.1488199 1.7863801
-4.6988201 3.09477 2.0904601
-4.6339302 3.1122 1.48246
-3.9219799 3.1488199 2.3219399
-4.6370301 3.1122 1.53522
-3.9129901 3.1488199 0.46145701
-4.4897399 3.0755899 2.0504
-4.22965 3.1488199 2.2011299
-4.4460602 3.0943201 2.152
-4.6269002 3.1122 2.2693
-4.0559101 3.1488199 0.310249
-4.1403399 3.1122 2.67996
-4.6988201 2.9660499 0.45851099
-4.11235 3.1488199 0.70985103
-3.8326001 3.1122 2.59254
-4.11061 3.1488199 2.5050001
-4.2123799 3.1488199 1.74651
-4.50175 3.16188 2.32586
-3.7803199 3.1488199 1.00825
-4.1351399 3.1488199 2.3340099
-4.6525602 3.1122 2.5678699
-4.6988201 2.9272101 2.1802101
-3.82757 3.1488199 1.31902
-4.4380798 3.1488199 0.81804299
-4.50175 3.1584699 1.92864
