# .PCD v0.7 - Point Cloud Data file format
VERSION 0.7
FIELDS x y z
SIZE 4 4 4
TYPE F F F
COUNT 1 1 1
WIDTH 1579
HEIGHT 1
VIEWPOINT 0 0 0 1 0 0 0
POINTS 1579
DATA ascii
-0.20084301 1.58097 0.22039101
-0.49552 1.7316999 0.78110099
-0.54435903 1.44918 0.78110099
-0.34309801 1.4597501 0.78110099
-0.188638 1.49779 0.58753401
-0.20084301 0.94547302 0.248291
-0.203005 1.21685 0.59802997
-0.48866099 1.71337 0.35393599
-0.24067201 1.49512 0.72999698
-0.492636 1.7392401 0.78110099
-0.215114 1.76876 0.65925699
-0.59694898 1.56243 0.78110099
-0.54218298 1.21424 0.78110099
-0.188638 1.84297 0.365132
-0.188638 0.95715499 0.26844299
-0.25887501 1.0693901 0.35393599
-0.24067201 1.7421 0.67573702
-0.486844 1.5634201 0.78110099
-0.201498 1.05155 0.65460402
-0.24067201 1.55261 0.66124499
-0.44827801 1.4668601 0.35393599
-0.24067201 1.54141 0.73065102
-0.22551499 1.80732 0.70387799
-0.210925 1.45145 0.64128399
-0.188638 1.31889 0.507195
-0.23525999 1.4288501 0.77680701
-0.239336 1.71112 0.59802997
-0.58467299 1.26775 0.78110099
-0.20084301 1.5683 0.21359199
-0.47890699 1.13455 0.78110099
-0.42525199 0.93506402 0.78110099
-0.29443699 1.5893199 0.78110099
-0.188638 1.38146 0.430462
-0.188638 1.1980799 0.46320799
-0.199873 1.8504699 0.59802997
-0.52886802 1.73133 0.35393599
-0.710446 1.2396899 0.78110099
-0.264884 1.4451801 0.78110099
-0.54983801 0.909527 0.78110099
-0.35450301 1.40534 0.35393599
-0.188638 1.66649 0.30388799
-0.58926702 0.93558502 0.78110099
-0.43288001 1.70313 0.78110099
-0.20084301 1.28977 0.29881099
-0.188638 1.00021 0.53881001
-0.67088002 1.8263 0.35393599
-0.188638 1.4438 0.46982101
-0.35285199 0.95315897 0.78110099
-0.20084301 1.0284899 0.248705
-0.213734 1.15344 0.65333599
-0.188638 1.02614 0.45471999
-0.57791102 0.92271799 0.35393599
-0.20084301 0.93159401 0.28273299
-0.188638 1.2535 0.25836799
-0.438557 1.6526901 0.78110099
-0.45873699 1.18205 0.78110099
-0.25102401 1.81865 0.78110099
-0.188638 1.85138 0.46016401
-0.36465001 1.34604 0.78110099
-0.383371 1.1897 0.78110099
-0.59485501 1.42781 0.78110099
-0.24067201 1.55525 0.751522
-0.188638 1.44791 0.41080099
-0.20220201 1.55045 0.603863
-0.221954 1.2347 0.68859798
-0.33138001 1.55424 0.78110099
-0.188638 0.99848199 0.46220499
-0.51684701 1.23918 0.78110099
-0.24067201 1.4191099 0.72670799
-0.631796 1.81793 0.35393599
-0.346903 1.1422499 0.78110099
-0.22675601 1.64319 0.70920002
-0.24067201 1.5717601 0.65659398
-0.236398 1.71217 0.75056398
-0.60228097 1.14461 0.35393599
-0.244765 1.7376601 0.35393599
-0.188638 1.56832 0.56878102
-0.24067201 1.08964 0.711882
-0.188638 1.41869 0.43793401
-0.24067201 1.70946 0.63246799
-0.190203 0.98817098 0.60614502
-0.384354 1.08945 0.78110099
-0.39717299 0.934156 0.78110099
-0.188638 1.69572 0.42908099
-0.62908399 1.43138 0.78110099
-0.207701 0.933994 0.627455
-0.24067201 1.65637 0.72911298
-0.228232 1.21223 0.76930201
-0.403575 1.6055599 0.78110099
-0.193846 1.20022 0.62177801
-0.22422899 1.16684 0.69836098
-0.188638 1.71058 0.321639
-0.243173 1.8118 0.78110099
-0.46357301 1.60015 0.78110099
-0.188638 0.98008299 0.382651
-0.34653699 1.41022 0.78110099
-0.583318 1.49079 0.35393599
-0.188638 1.65626 0.237177
-0.237905 1.31326 0.35393599
-0.207506 1.1044 0.680381
-0.204383 1.7963901 0.61321998
-0.20084301 0.98281002 0.31706101
-0.40006 0.99875897 0.35393599
-0.188638 1.10236 0.34141901
-0.188638 1.68723 0.56278902
-0.40268299 1.67085 0.78110099
-0.52385902 1.63471 0.78110099
-0.188638 1.06125 0.57107103
-0.188638 1.44475 0.52768099
-0.190374 1.5368299 0.60047102
-0.56830901 1.43989 0.35393599
-0.210324 1.0608701 0.69247001
-0.52432501 1.60633 0.78110099
-0.188638 0.89887202 0.49437201
-0.188638 1.57866 0.477328
-0.200468 1.57291 0.59802997
-0.215285 1.50437 0.65999001
-0.20084301 1.2054 0.270291
-0.63726902 1.8560899 0.35393599
-0.20084301 1.80756 0.270219
-0.27336499 1.31522 0.35393599
-0.592026 0.87628102 0.78110099
-0.58453602 1.74542 0.35393599
-0.596434 1.41085 0.78110099
-0.24067201 1.77312 0.67908901
-0.43728301 1.25371 0.78110099
-0.188638 1.21078 0.45222899
-0.27720001 1.56013 0.78110099
-0.20084301 1.67958 0.34510601
-0.20084301 1.11866 0.231319
-0.20084301 1.33841 0.25364599
-0.188638 1.31864 0.50826401
-0.188638 1.3469501 0.51718801
-0.19028001 1.1592799 0.606475
-0.188638 1.05257 0.34182101
-0.44760099 1.67867 0.35393599
-0.47683701 0.86949497 0.35393599
-0.24067201 1.19239 0.63038599
-0.61349899 1.75458 0.35393599
-0.188638 1.11203 0.474471
-0.71312702 0.90231901 0.78110099
-0.24067201 1.54141 0.73065102
-0.188638 1.34554 0.44130099
-0.228073 1.57736 0.76862001
-0.559802 1.11555 0.78110099
-0.69288301 1.61044 0.78110099
-0.20084301 0.88911599 0.23761
-0.62794501 1.50181 0.35393599
-0.42216101 1.43932 0.78110099
-0.209328 1.53737 0.68820101
-0.20084301 1.09083 0.26829401
-0.188638 0.972193 0.467042
-0.20185 1.84982 0.656115
-0.47248799 1.80664 0.35393599
-0.188638 1.2457 0.384076
-0.22062799 1.84956 0.73667902
-0.224711 1.70569 0.70042598
-0.24067201 1.20003 0.61897999
-0.62961 1.48247 0.35393599
-0.625633 1.72717 0.35393599
-0.67323399 1.02089 0.35393599
-0.52612001 0.88173401 0.78110099
-0.22544301 1.21968 0.35393599
-0.24067201 1.7307301 0.61790901
-0.188638 1.28084 0.41326499
-0.188638 1.52696 0.37205699
-0.188638 1.27345 0.57395202
-0.20084301 1.6569901 0.238758
-0.46638599 1.41784 0.78110099
-0.221963 1.12362 0.68863702
-0.23116 1.17555 0.72809201
-0.56018198 1.01114 0.78110099
-0.207385 1.17421 0.679865
-0.668253 1.49796 0.35393599
-0.188638 1.13936 0.43632999
-0.62431002 1.59936 0.35393599
-0.22540499 1.10862 0.70340502
-0.24067201 0.91497701 0.77098399
-0.24067201 1.1987 0.77647799
-0.20084301 1.2710201 0.231069
-0.270767 1.65767 0.78110099
-0.239612 1.1228499 0.76914603
-0.188638 1.7523 0.43727899
-0.188638 1.10909 0.47142601
-0.20084301 1.24468 0.301393
-0.20084301 0.99037099 0.300946
-0.68263698 1.40547 0.78110099
-0.26970801 1.39957 0.78110099
-0.197282 1.45116 0.63651597
-0.21569701 1.70977 0.35393599
-0.28906599 1.65526 0.78110099
-0.20084301 0.99011803 0.25058401
-0.205135 1.1936899 0.616445
-0.188638 1.1272399 0.21421
-0.188638 0.97776902 0.45521399
-0.24067201 1.5179501 0.61265802
-0.188638 1.32355 0.412779
-0.22118799 1.81551 0.73908198
-0.188638 1.66969 0.50895
-0.22900499 1.14476 0.71884799
-0.360116 1.69215 0.35393599
-0.23722599 1.53827 0.77836698
-0.28770199 0.99219197 0.35393599
-0.25887501 1.0693901 0.35393599
-0.188638 1.65307 0.46834901
-0.20084301 1.08397 0.28158
-0.188638 0.90121102 0.58045799
-0.456265 1.57177 0.78110099
-0.188638 1.3098201 0.46397001
-0.232605 1.62061 0.734294
-0.188638 1.44661 0.47760201
-0.201543 0.92375201 0.60103399
-0.481383 0.99362099 0.78110099
-0.65787899 1.55978 0.35393599
-0.46575499 0.87629998 0.78110099
-0.24067201 1.35545 0.76508099
-0.20084301 0.90362501 0.29835799
-0.208037 1.60015 0.62889397
-0.218154 1.26297 0.72606599
-0.20084301 1.63693 0.28479099
-0.40505201 1.75948 0.78110099
-0.188638 1.2085299 0.55141401
-0.43312699 1.33053 0.35393599
-0.64008498 1.30742 0.78110099
-0.20084301 0.91083699 0.238359
-0.22333699 1.13178 0.74830103
-0.193442 0.98211801 0.59802997
-0.473744 1.2424099 0.78110099
-0.53734702 0.91747701 0.78110099
-0.29399699 1.27165 0.35393599
-0.54975098 1.14855 0.78110099
-0.40702 1.53133 0.35393599
-0.56703901 1.5576 0.35393599
-0.24067201 1.2723 0.71379203
-0.56354398 1.27599 0.78110099
-0.340287 1.73434 0.78110099
-0.45674399 1.44932 0.78110099
-0.188638 1.03944 0.41308001
-0.188638 1.68226 0.388473
-0.188638 0.98920602 0.445135
-0.188638 1.28126 0.38274601
-0.705428 1.37131 0.78110099
-0.354922 0.97005898 0.35393599
-0.42977601 1.06154 0.78110099
-0.188638 1.40604 0.48552099
-0.45354301 0.91437298 0.35393599
-0.333561 1.31917 0.35393599
-0.40985999 0.98790401 0.78110099
-0.60877198 1.82014 0.35393599
-0.592785 1.52335 0.78110099
-0.24528199 1.09176 0.78110099
-0.34151 1.05003 0.78110099
-0.432071 1.21788 0.78110099
-0.45077699 1.82665 0.35393599
-0.188638 0.89356601 0.2111
-0.466851 1.35619 0.78110099
-0.64879298 1.48507 0.35393599
-0.21559399 1.65905 0.66131401
-0.24067201 1.70963 0.64629
-0.24528199 1.05339 0.35393599
-0.65179598 1.4266599 0.35393599
-0.22579201 1.75188 0.75883502
-0.234109 1.54234 0.77042699
-0.444188 1.4733 0.35393599
-0.20856901 1.7431901 0.68494099
-0.190533 0.95319498 0.60756201
-0.42810601 1.6531399 0.78110099
-0.19676501 0.92777699 0.63429999
-0.20084301 1.65458 0.33897099
-0.24067201 1.18002 0.59810799
-0.468916 1.27544 0.78110099
-0.202245 1.52996 0.65780801
-0.188638 1.64906 0.33963501
-0.232462 0.87023002 0.35393599
-0.236147 1.38371 0.74948698
-0.58015603 1.2401299 0.78110099
-0.188638 1.2582901 0.57562602
-0.66341001 1.20726 0.78110099
-0.20756701 0.88096398 0.59802997
-0.188638 0.97323698 0.234073
-0.705428 1.37131 0.78110099
-0.24067201 1.78897 0.62094301
-0.188638 1.6502301 0.30383399
-0.191902 1.3983901 0.59802997
-0.197862 1.7147599 0.59802997
-0.212616 1.08939 0.70230502
-0.24067201 1.31628 0.757029
-0.32142699 1.549 0.35393599
-0.24067201 1.78229 0.72683001
-0.20800699 1.13868 0.628766
-0.58366901 0.96452999 0.35393599
-0.188638 1.40435 0.36356199
-0.209108 1.73721 0.63348901
-0.260003 1.32778 0.35393599
-0.22422899 1.16684 0.69836098
-0.247393 1.5835299 0.78110099
-0.61484802 1.56221 0.78110099
-0.63734698 1.80452 0.35393599
-0.24067201 1.44271 0.74619198
-0.27717599 0.88980901 0.35393599
-0.20084301 1.74519 0.31709999
-0.20084301 1.26977 0.31375599
-0.194033 1.24751 0.59961802
-0.20539799 1.10614 0.61757302
-0.188638 1.44661 0.47760201
-0.20084301 1.72786 0.27661401
-0.23525199 1.85164 0.59802997
-0.20084301 1.09319 0.27122
-0.47022 1.73369 0.35393599
-0.30310401 1.21763 0.78110099
-0.24067201 1.0096 0.598472
-0.24067201 1.63237 0.65985101
-0.22545099 1.50158 0.59802997
-0.225013 1.65478 0.59802997
-0.441524 1.28473 0.78110099
-0.233752 1.79821 0.739214
-0.188638 1.30282 0.38654599
-0.31219599 0.93906498 0.78110099
-0.346982 1.7694401 0.78110099
-0.37122101 1.47044 0.35393599
-0.26226699 1.06043 0.35393599
-0.188638 1.79338 0.578067
-0.188638 1.44871 0.50117803
-0.188638 1.71874 0.42074901
-0.247392 1.06806 0.35393599
-0.68254101 1.0842 0.35393599
-0.436001 1.71867 0.78110099
-0.188638 1.78102 0.45571399
-0.60825098 1.81445 0.35393599
-0.447272 1.69408 0.35393599
-0.188638 1.1835001 0.47954199
-0.188638 1.33039 0.448293
-0.20084301 1.08397 0.28158
-0.204923 1.41127 0.61553401
-0.30019999 1.25324 0.78110099
-0.383371 1.1897 0.78110099
-0.188638 1.16601 0.52453399
-0.212616 1.08939 0.70230502
-0.59789097 0.94522297 0.35393599
-0.19695701 1.3423899 0.20748
-0.64237201 1.69722 0.78110099
-0.413757 1.31203 0.35393599
-0.55002302 1.57695 0.78110099
-0.228177 1.60385 0.71529597
-0.24067201 1.55633 0.70007998
-0.496521 1.12923 0.78110099
-0.224445 1.53497 0.75305498
-0.437309 1.41706 0.35393599
-0.24067201 1.4238 0.62672102
-0.18982901 1.09602 0.604541
-0.55718201 1.6600699 0.78110099
-0.385732 0.97710401 0.35393599
-0.188638 0.99922103 0.31170201
-0.188638 0.984851 0.459566
-0.61606097 1.7168 0.35393599
-0.188638 1.3614 0.380615
-0.20084301 1.26771 0.31604201
-0.188638 1.53966 0.40852499
-0.222252 1.19137 0.35393599
-0.20084301 0.91094297 0.23663101
-0.21686199 1.52597 0.66675299
-0.188638 1.3662699 0.56935
-0.231508 1.5294501 0.72958601
-0.58872801 1.39086 0.78110099
-0.219438 1.14711 0.73157603
-0.203576 1.6644599 0.60975498
-0.65566897 1.66769 0.35393599
-0.303083 1.28101 0.35393599
-0.594459 1.67141 0.35393599
-0.61101598 1.79348 0.35393599
-0.220976 1.1091 0.73817098
-0.55147201 0.99850398 0.35393599
-0.711119 1.39823 0.35393599
-0.31434199 1.64557 0.35393599
-0.188638 1.47158 0.56495202
-0.65478998 1.14459 0.35393599
-0.234127 1.84018 0.77590799
-0.67848301 1.27504 0.78110099
-0.20084301 1.7015001 0.25665399
-0.240545 1.6692899 0.76835799
-0.190321 1.78213 0.60665101
-0.24944501 0.94508702 0.78110099
-0.24067201 1.1987 0.77647799
-0.20091701 1.45015 0.59802997
-0.69147497 1.5227 0.35393599
-0.201114 1.52178 0.59919602
-0.66991502 0.92662299 0.35393599
-0.21446501 1.10567 0.59802997
-0.237663 1.40343 0.755992
-0.20084301 1.04468 0.35243401
-0.188638 1.25776 0.42019299
-0.24067201 1.2444 0.70526701
-0.188638 1.83672 0.319682
-0.218402 0.87935901 0.673361
-0.188638 1.32582 0.50842297
-0.188638 1.80958 0.58702099
-0.42247301 1.49265 0.35393599
-0.20084301 0.89078999 0.25981301
-0.24067201 1.2377 0.64697498
-0.217005 1.26688 0.72113502
-0.188638 1.02558 0.27897999
-0.33366999 0.93231702 0.35393599
-0.57448202 1.5864 0.35393599
-0.26070601 1.50464 0.35393599
-0.188638 1.00114 0.57183802
-0.188638 0.97673702 0.41189599
-0.19052801 0.92412102 0.60754198
-0.359593 0.97084898 0.35393599
-0.188638 1.66154 0.275471
-0.20084301 1.5631 0.24051601
-0.188638 1.55393 0.33829501
-0.188638 1.24151 0.50609899
-0.28149199 1.46191 0.35393599
-0.234473 1.79758 0.74230701
-0.252731 1.56151 0.78110099
-0.69652402 1.49428 0.35393599
-0.219613 1.39745 0.73232597
-0.490244 1.5603 0.78110099
-0.188638 1.56756 0.437594
-0.23869 1.56021 0.77952898
-0.188638 1.2058001 0.326415
-0.188638 1.56724 0.53890002
-0.24067201 1.10941 0.70488298
-0.24067201 1.7840101 0.63122302
-0.41744199 0.95624501 0.35393599
-0.188638 0.94512498 0.45633301
-0.26062 1.17106 0.78110099
-0.43390301 1.29475 0.78110099
-0.19366001 1.29371 0.20748
-0.28980201 1.48094 0.78110099
-0.230683 1.23289 0.773175
-0.66520703 1.11691 0.35393599
-0.297645 1.68573 0.78110099
-0.24067201 1.71501 0.63480401
-0.429407 1.20862 0.78110099
-0.219474 1.6701 0.67795998
-0.188638 1.09825 0.31315899
-0.20084301 1.33744 0.30454201
-0.33736801 1.14933 0.78110099
-0.24067201 1.42351 0.61408502
-0.188638 1.44458 0.39517701
-0.31143001 1.3026299 0.78110099
-0.21686099 1.47676 0.72051698
-0.26941001 1.61687 0.78110099
-0.60050899 1.41703 0.78110099
-0.24067201 1.48402 0.75264299
-0.468059 1.01459 0.35393599
-0.24067201 1.5308501 0.69376498
-0.309798 1.32614 0.78110099
-0.452077 1.13419 0.78110099
-0.22603101 0.88298702 0.75985998
-0.24067201 1.45978 0.78039902
-0.60841799 0.86956602 0.78110099
-0.20084301 1.30399 0.31236601
-0.527035 1.7681 0.35393599
-0.534769 1.06343 0.35393599
-0.19265699 1.52745 0.61667401
-0.389249 1.47851 0.78110099
-0.192881 0.96540999 0.61763501
-0.207552 0.88040698 0.68057901
-0.206195 1.74699 0.67475498
-0.202628 1.1183 0.60569102
-0.188638 1.8245699 0.30869401
-0.240545 1.6692899 0.76835799
-0.20084301 1.08397 0.28158
-0.30365601 1.78417 0.35393599
-0.221025 1.23721 0.738383
-0.41269901 1.04584 0.78110099
-0.188638 0.88432902 0.55922401
-0.23711599 1.58307 0.76972699
-0.44563001 1.24244 0.78110099
-0.188638 1.74576 0.25700399
-0.624906 1.53859 0.78110099
-0.24067201 1.51362 0.67575401
-0.188638 0.871737 0.45017701
-0.20084301 1.20541 0.31597301
-0.195758 1.64692 0.629978
-0.69347399 0.94879597 0.35393599
-0.60338902 1.21368 0.78110099
-0.30865401 1.49129 0.78110099
-0.42615801 1.7336 0.35393599
-0.63981003 1.4197299 0.78110099
-0.60810101 0.87232798 0.78110099
-0.188638 1.83811 0.52046299
-0.203197 1.48438 0.66189402
-0.34735399 1.50346 0.35393599
-0.70586199 1.45111 0.35393599
-0.188638 1.5874799 0.351037
-0.24076501 1.29219 0.78110099
-0.269795 1.79609 0.35393599
-0.57678699 1.25599 0.78110099
-0.60696501 1.0067101 0.35393599
-0.20084301 1.0126899 0.34752899
-0.479819 1.84718 0.35393599
-0.188638 1.61 0.54807401
-0.204467 1.83474 0.66734201
-0.65646601 1.51337 0.35393599
-0.24067201 0.87895101 0.73369402
-0.24067201 1.1482 0.62472099
-0.47964501 1.19269 0.78110099
-0.35975501 1.7816 0.78110099
-0.23331501 1.09486 0.770612
-0.668253 1.49796 0.35393599
-0.48728001 1.0309401 0.35393599
-0.50852102 1.43607 0.78110099
-0.188638 1.0933501 0.26483601
-0.19195899 1.26229 0.20748
-0.188638 1.0176001 0.53487903
-0.188638 1.81355 0.27789
-0.368433 1.09249 0.78110099
-0.188638 1.31252 0.238464
-0.24067201 1.4238 0.62672102
-0.62630701 1.62046 0.35393599
-0.48399901 0.92350602 0.35393599
-0.210503 1.1976399 0.69323802
-0.36303601 1.79714 0.35393599
-0.232657 1.54801 0.35393599
-0.22599401 1.16594 0.70592999
-0.62192798 1.8166699 0.35393599
-0.212633 1.63562 0.70237899
-0.24067201 1.15018 0.77622098
-0.20084301 1.78354 0.28594801
-0.20084301 0.92595297 0.29301801
-0.208773 1.5022399 0.63205302
-0.220098 1.07915 0.73440498
-0.24067201 1.1008101 0.63133401
-0.231923 1.75842 0.73136801
-0.53164601 1.65047 0.35393599
-0.634543 1.09431 0.35393599
-0.29173201 1.76759 0.35393599
-0.48736101 0.89789498 0.78110099
-0.19949 1.67472 0.64599198
-0.188638 0.87277001 0.37886801
-0.188638 1.7341501 0.28025001
-0.24155299 0.87675399 0.78110099
-0.20084301 1.26368 0.227975
-0.259828 1.42554 0.78110099
-0.653148 1.569 0.35393599
-0.24067201 1.5122401 0.71014202
-0.63980299 1.58657 0.78110099
-0.381374 1.31945 0.78110099
-0.227533 1.71164 0.76630402
-0.205347 1.55749 0.35393599
-0.190423 0.95131302 0.60708803
-0.24067201 1.11612 0.63189
-0.225547 1.36008 0.35393599
-0.188638 1.842 0.40890601
-0.19206101 1.45149 0.61411798
-0.62972099 1.06431 0.35393599
-0.188638 0.86993903 0.42575201
-0.22579201 1.75188 0.75883502
-0.44393399 1.53736 0.78110099
-0.24067201 1.59721 0.62689501
-0.463462 1.75438 0.35393599
-0.233767 1.02013 0.77050698
-0.188638 1.1648 0.29521501
-0.63099802 1.55837 0.35393599
-0.53838599 1.29821 0.78110099
-0.221347 1.35381 0.73976499
-0.188638 1.26982 0.44665101
-0.22097 1.47256 0.59802997
-0.188638 1.64001 0.50664598
-0.68487799 1.08933 0.35393599
-0.22488201 1.79875 0.701159
-0.49428099 1.5693001 0.35393599
-0.259644 1.01526 0.78110099
-0.53635401 1.8676701 0.35393599
-0.487131 1.36094 0.78110099
-0.28415999 1.8328 0.78110099
-0.188638 0.94775099 0.35522899
-0.63099802 1.55837 0.35393599
-0.20087101 1.78991 0.59802997
-0.242157 1.556 0.78110099
-0.34021199 1.29364 0.78110099
-0.34389499 0.95728898 0.78110099
-0.188638 1.57236 0.226933
-0.188638 1.30866 0.51511598
-0.63449699 1.8470401 0.35393599
-0.188638 1.6652499 0.59229797
-0.24067201 1.15279 0.69640398
-0.20653 1.0390199 0.62243098
-0.30071399 1.51537 0.35393599
-0.52982098 1.84208 0.35393599
-0.24067201 1.69793 0.674936
-0.226622 1.80439 0.76239699
-0.487131 1.36094 0.78110099
-0.56889498 1.2151901 0.78110099
-0.188638 1.5775599 0.34062299
-0.49274701 1.43381 0.78110099
-0.24067201 1.84945 0.70152301
-0.21116801 1.79884 0.35393599
-0.557455 0.90174502 0.78110099
-0.65377301 1.4018199 0.78110099
-0.22728901 1.73362 0.71148801
-0.24067201 1.19569 0.64794499
-0.27487001 1.08638 0.35393599
-0.46924001 0.92163497 0.35393599
-0.227975 1.50055 0.76820201
-0.678424 1.46347 0.78110099
-0.42839199 1.35976 0.35393599
-0.20495699 0.94788498 0.35393599
-0.223343 1.4208601 0.74832797
-0.52692902 1.16098 0.78110099
-0.20084301 0.88027197 0.261127
-0.188638 1.84321 0.57696903
-0.237645 1.22719 0.75591397
-0.230574 1.40573 0.77308899
-0.24067201 1.11466 0.69169801
-0.309798 1.32614 0.78110099
-0.24067201 1.22785 0.69588798
-0.30129099 0.93584698 0.78110099
-0.225641 1.16738 0.70441598
-0.24067201 1.49595 0.77883703
-0.30865401 1.49129 0.78110099
-0.23464601 1.79633 0.74304903
-0.556081 1.05795 0.35393599
-0.189614 1.8111 0.600649
-0.333698 1.5902801 0.35393599
-0.24067201 1.44313 0.740798
-0.219992 1.70822 0.73395002
-0.20084301 1.77162 0.29080999
-0.49867201 1.49701 0.78110099
-0.188638 1.31712 0.33798799
-0.542813 1.09404 0.35393599
-0.20312101 1.7277 0.60780603
-0.23406699 1.78645 0.740565
-0.188638 1.5594 0.31151399
-0.188638 1.78883 0.47087201
-0.50100702 1.35324 0.78110099
-0.64212197 0.97535801 0.35393599
-0.45555499 0.965294 0.78110099
-0.29744899 1.03116 0.35393599
-0.217521 1.60473 0.72334898
-0.340671 1.36201 0.78110099
-0.50704199 0.92780799 0.35393599
-0.20084301 1.83357 0.26771799
-0.188638 1.8417799 0.26449099
-0.66600001 1.7525899 0.35393599
-0.20084301 1.60074 0.258405
-0.54474199 1.4094599 0.78110099
-0.22466999 1.14108 0.75402099
-0.52939099 1.56054 0.35393599
-0.40702 1.53133 0.35393599
-0.61977798 1.24893 0.78110099
-0.208019 0.90079498 0.62881899
-0.63923001 1.31299 0.78110099
-0.203444 1.4833699 0.60919201
-0.41333801 1.14109 0.78110099
-0.42206299 0.96723402 0.78110099
-0.188638 1.30099 0.53080398
-0.63044697 0.919249 0.35393599
-0.233041 1.6115 0.35393599
-0.20084301 1.7720799 0.31311399
-0.231372 1.35041 0.35393599
-0.259828 1.42554 0.78110099
-0.188638 1.76142 0.41081601
-0.210794 1.26843 0.35393599
-0.188638 0.912655 0.56646103
-0.22776601 1.70723 0.76730198
-0.59891099 1.62498 0.78110099
-0.20125601 1.86015 0.65356898
-0.188638 1.62419 0.44131899
-0.19843601 1.83215 0.59802997
-0.188638 0.95878398 0.24866
-0.34638101 1.3631099 0.78110099
-0.20125601 1.86015 0.65356898
-0.24067201 1.19479 0.600945
-0.20084301 0.900702 0.230363
-0.437309 1.41706 0.35393599
-0.22361 1.71205 0.74947298
-0.188638 1.50314 0.585522
-0.188638 1.76687 0.25229901
-0.22451501 1.41952 0.69958597
-0.64551598 0.957569 0.78110099
-0.231318 1.54199 0.72877002
-0.20659199 1.2507499 0.62269503
-0.188638 0.93840599 0.238619
-0.20084301 1.34846 0.30671901
-0.243266 1.1404001 0.35393599
-0.24067201 1.53631 0.66857898
-0.35131201 1.58994 0.35393599
-0.69034803 1.69835 0.78110099
-0.20419499 1.04419 0.61241299
-0.188638 1.12605 0.49520299
-0.60176599 0.954557 0.35393599
-0.448459 1.38974 0.35393599
-0.260167 1.1852601 0.78110099
-0.66871798 1.63386 0.78110099
-0.63291401 1.56486 0.35393599
-0.188638 1.7831399 0.41396099
-0.22217099 1.0948499 0.74329799
-0.188638 1.75825 0.49844801
-0.57461601 1.04105 0.78110099
-0.21015701 1.73633 0.63798702
-0.492082 1.58327 0.78110099
-0.24067201 0.86962003 0.66737598
-0.20469201 1.82973 0.66830999
-0.22846501 0.99927998 0.35393599
-0.188638 1.63993 0.36677301
-0.379684 1.30331 0.35393599
-0.188638 1.68231 0.28719801
-0.59826201 1.36176 0.78110099
-0.320923 1.00243 0.78110099
-0.24067201 1.6882401 0.77920902
-0.188638 1.35492 0.34513
-0.24067201 1.73476 0.61457801
-0.28968501 1.73235 0.78110099
-0.23598599 1.81414 0.77738303
-0.188638 1.82908 0.54149002
-0.24067201 0.88975799 0.60525298
-0.188638 1.44458 0.39517701
-0.212735 0.94743598 0.35393599
-0.522259 1.02283 0.78110099
-0.64830601 1.51482 0.78110099
-0.215352 1.04295 0.35393599
-0.267479 1.45776 0.35393599
-0.188638 1.7243 0.216869
-0.188638 1.1757801 0.37459901
-0.55609202 1.38767 0.78110099
-0.207019 0.90470201 0.62452501
-0.19524699 1.74518 0.62778503
-0.27614701 1.12897 0.78110099
-0.21492399 1.2095701 0.65843999
-0.20084301 1.2543499 0.209001
-0.39711601 1.01408 0.78110099
-0.55740798 0.97928101 0.35393599
-0.40662599 1.6576 0.78110099
-0.51028401 1.5743001 0.78110099
-0.188806 0.99060601 0.59948999
-0.38419199 0.90888298 0.35393599
-0.35253999 1.0122 0.35393599
-0.304575 1.71483 0.35393599
-0.24450199 0.88990301 0.35393599
-0.20084301 1.30742 0.296114
-0.56050402 1.56143 0.78110099
-0.188638 1.19797 0.279733
-0.43867201 1.49037 0.78110099
-0.693084 1.1228 0.35393599
-0.188638 0.95630401 0.33467099
-0.54675001 1.85638 0.35393599
-0.188638 1.851 0.55004501
-0.20084301 1.71629 0.34810901
-0.50966901 1.64771 0.35393599
-0.232544 1.31432 0.73403001
-0.18872499 1.84636 0.59878802
-0.21889 1.47866 0.67545497
-0.202245 1.52996 0.65780801
-0.64909202 1.66763 0.78110099
-0.195813 1.27824 0.59802997
-0.33447701 1.56968 0.35393599
-0.188638 1.7159899 0.52133501
-0.19170301 1.1634001 0.61258
-0.207729 1.56371 0.62757301
-0.235669 1.68388 0.77713102
-0.188638 0.93599898 0.35250801
-0.35853699 1.69253 0.78110099
-0.242577 1.6191 0.35393599
-0.30180401 1.7968 0.35393599
-0.219143 1.79181 0.59802997
-0.217792 1.78317 0.72451001
-0.19082899 0.98930299 0.60882998
-0.20084301 1.75752 0.26192299
-0.32580799 1.12902 0.78110099
-0.188638 1.71052 0.58675897
-0.46646199 1.71201 0.35393599
-0.213967 1.19374 0.708103
-0.188638 1.46371 0.482885
-0.213268 1.3559099 0.35393599
-0.188638 1.71182 0.454027
-0.41947299 1.4550101 0.35393599
-0.237086 1.68528 0.59802997
-0.188638 1.21766 0.236127
-0.24067201 1.01235 0.60565102
-0.188638 1.86721 0.444314
-0.55797601 1.49804 0.78110099
-0.482934 1.12017 0.78110099
-0.38762 1.37506 0.35393599
-0.36372399 1.39847 0.35393599
-0.207673 1.43906 0.62733197
-0.188638 1.6779799 0.54238999
-0.24067201 1.86137 0.72058702
-0.19524699 1.74518 0.62778503
-0.188638 1.4841 0.50410497
-0.34525499 1.34407 0.35393599
-0.211858 1.70578 0.35393599
-0.471111 1.46571 0.78110099
-0.40662599 1.6576 0.78110099
-0.188638 1.30866 0.51511598
-0.69071001 1.80094 0.35393599
-0.46924001 0.92163497 0.35393599
-0.346084 1.38343 0.35393599
-0.188638 1.26798 0.29746899
-0.188638 0.99438399 0.329613
-0.188638 1.8220201 0.38908899
-0.204474 0.89592397 0.66737401
-0.32221001 0.97831798 0.35393599
-0.38914999 0.99461699 0.35393599
-0.29715601 1.62684 0.35393599
-0.24067201 1.55185 0.77272999
-0.29536301 1.0456001 0.35393599
-0.188638 1.86204 0.43777299
-0.480351 1.6971999 0.78110099
-0.188638 1.29591 0.41672301
-0.44611499 1.71565 0.78110099
-0.20084301 1.7727 0.34029001
-0.20049 1.67802 0.65028101
-0.218753 1.10761 0.67486697
-0.210503 1.1976399 0.69323802
-0.218486 0.872877 0.72748798
-0.391662 0.95343202 0.78110099
-0.65494001 0.90070498 0.35393599
-0.62750202 1.17424 0.78110099
-0.642111 0.95790201 0.35393599
-0.62883198 1.75143 0.35393599
-0.218859 1.23291 0.729092
-0.200032 1.5400701 0.648314
-0.60079902 1.47464 0.35393599
-0.58109999 1.52285 0.35393599
-0.21686099 1.47676 0.72051698
-0.24067201 1.3170201 0.741826
-0.191245 1.81954 0.610614
-0.24067201 1.83594 0.74879199
-0.24067201 1.4776 0.63984501
-0.216346 1.07805 0.66454202
-0.219208 1.54219 0.35393599
-0.65258998 1.43809 0.78110099
-0.18959001 1.24914 0.20748
-0.68262899 1.55158 0.35393599
-0.71041399 1.73043 0.35393599
-0.19969 1.66898 0.59802997
-0.197648 1.07911 0.59802997
-0.20084301 0.93159401 0.28273299
-0.24067201 0.89733303 0.64606899
-0.50229299 1.25933 0.78110099
-0.188638 1.10545 0.33275399
-0.426054 1.5905 0.78110099
-0.188638 1.8320301 0.44769999
-0.227819 1.15171 0.76753199
-0.20084301 1.34217 0.208086
-0.20972501 1.1419899 0.59802997
-0.212238 0.91494799 0.35393599
-0.247784 0.89611602 0.78110099
-0.222252 1.19137 0.35393599
-0.20311099 1.79224 0.35393599
-0.21366601 1.5496401 0.70681101
-0.220799 0.891693 0.59802997
-0.59304303 1.3287899 0.78110099
-0.232292 1.5997699 0.77445197
-0.62509799 1.56883 0.78110099
-0.188638 1.28705 0.241625
-0.188638 1.50378 0.45844701
-0.28309101 1.42467 0.78110099
-0.188638 0.94775099 0.35522899
-0.188638 1.5955499 0.45824301
-0.582394 1.63527 0.35393599
-0.226463 1.08926 0.59802997
-0.29224801 1.61252 0.78110099
-0.188638 1.1291699 0.27248499
-0.188638 1.64221 0.46941301
-0.188638 1.6647201 0.52092201
-0.223139 1.4788001 0.74745101
-0.216346 1.07805 0.66454202
-0.188638 1.65966 0.51510698
-0.223334 1.85656 0.74829102
-0.68494701 1.66049 0.78110099
-0.52010101 1.7239701 0.35393599
-0.20084301 1.07441 0.30624601
-0.24067201 1.40548 0.71289402
-0.57635099 1.01815 0.35393599
-0.20084301 0.91083699 0.238359
-0.226861 1.67711 0.70964903
-0.64143598 1.17671 0.78110099
-0.188638 1.2535 0.25836799
-0.188638 1.8127199 0.54398501
-0.65630901 0.98141098 0.35393599
-0.491191 1.65485 0.78110099
-0.473744 1.2424099 0.78110099
-0.188638 1.73926 0.459748
-0.57113498 1.6705 0.78110099
-0.52354097 0.878452 0.35393599
-0.20084301 1.7517 0.26476899
-0.30385599 1.59732 0.35393599
-0.54074502 1.29961 0.78110099
-0.242577 1.6191 0.35393599
-0.24067201 1.83471 0.75501901
-0.70661402 1.82391 0.35393599
-0.662682 1.3827699 0.78110099
-0.46678999 1.0197901 0.35393599
-0.47248799 1.80664 0.35393599
-0.22711501 1.09284 0.764512
-0.188638 1.63131 0.51309901
-0.22776601 1.70723 0.76730198
-0.379731 1.62746 0.78110099
-0.23272499 1.76411 0.73480999
-0.21509799 1.13484 0.71295398
-0.31523901 1.3986 0.78110099
-0.24067201 1.10941 0.70488298
-0.57719201 1.12255 0.78110099
-0.45675299 1.0380599 0.78110099
-0.63360798 1.05607 0.35393599
-0.470162 1.66435 0.78110099
-0.243266 1.1404001 0.35393599
-0.188638 1.23839 0.436095
-0.61398703 0.98527098 0.35393599
-0.188638 1.69028 0.48363301
-0.67387998 1.36141 0.78110099
-0.40259799 1.81661 0.35393599
-0.188638 1.69769 0.58470899
-0.302993 1.74177 0.78110099
-0.24067201 1.15712 0.66066301
-0.188638 1.77301 0.43137601
-0.42791 1.12498 0.78110099
-0.64354098 1.6367 0.35393599
-0.188638 1.13264 0.58543998
-0.208112 1.54828 0.62921703
-0.249447 1.42925 0.78110099
-0.188638 1.31864 0.50826401
-0.188638 1.25992 0.574974
-0.24067201 1.6824501 0.69207501
-0.24067201 1.15018 0.77622098
-0.188638 0.97323698 0.234073
-0.24067201 1.65555 0.60597003
-0.188638 1.1272399 0.21421
-0.203234 1.21812 0.66205502
-0.64949399 0.97907698 0.35393599
-0.53569198 0.88495702 0.35393599
-0.477523 1.5197999 0.78110099
-0.217931 1.21027 0.72510803
-0.44174001 1.62225 0.78110099
-0.188638 1.31178 0.29607999
-0.20372599 1.05003 0.66416597
-0.20084301 1.8133 0.29288501
-0.42884201 1.15599 0.78110099
-0.444188 1.4733 0.35393599
-0.23116601 1.81054 0.77355802
-0.450104 1.6298701 0.35393599
-0.31446099 1.26447 0.78110099
-0.197458 1.2175601 0.63727099
-0.294119 1.43511 0.35393599
-0.24067201 1.11396 0.77968699
-0.218413 1.8556499 0.67340797
-0.210324 1.0608701 0.69247001
-0.20084301 1.76522 0.328958
-0.188638 0.97673702 0.41189599
-0.22381701 1.25464 0.75036198
-0.209461 1.54154 0.68877
-0.64970899 1.09759 0.35393599
-0.70688701 1.75063 0.35393599
-0.20084301 1.5447201 0.33785799
-0.24067201 1.51842 0.65404397
-0.25211301 1.46297 0.78110099
-0.46306801 1.47112 0.35393599
-0.52692902 1.16098 0.78110099
-0.188638 0.982162 0.23059399
-0.23055699 1.23976 0.72550601
-0.29254699 1.7958601 0.35393599
-0.289848 1.40677 0.78110099
-0.36356699 1.118 0.78110099
-0.188638 1.82072 0.355261
-0.20798001 1.80882 0.68241698
-0.56630403 1.57108 0.78110099
-0.228218 1.80484 0.71547401
-0.188638 1.0100501 0.52464199
-0.422113 1.76638 0.78110099
-0.60701603 1.43794 0.78110099
-0.375139 1.4268 0.35393599
-0.375119 1.381 0.78110099
-0.682212 1.54672 0.78110099
-0.188638 1.49876 0.51730901
-0.24067201 1.59179 0.65024698
-0.20084301 0.94564497 0.32370499
-0.50323999 1.7040401 0.78110099
-0.27457601 1.57894 0.35393599
-0.20015199 1.77039 0.64882803
-0.24067201 1.41423 0.75903201
-0.44174001 1.62225 0.78110099
-0.33983001 0.975573 0.35393599
-0.24067201 1.60255 0.730681
-0.61220402 1.6457601 0.35393599
-0.188638 1.07959 0.50765902
-0.48095199 1.65984 0.78110099
-0.68760699 0.93232 0.35393599
-0.61323202 0.88166898 0.78110099
-0.188638 1.04523 0.269696
-0.699781 1.80488 0.78110099
-0.417721 1.64108 0.78110099
-0.19392601 1.80556 0.62212098
-0.20084301 1.79268 0.346338
-0.54153299 1.51528 0.78110099
-0.29531401 1.24023 0.78110099
-0.22694901 1.14741 0.71002799
-0.25462401 0.99821502 0.78110099
-0.212937 1.12247 0.70368201
-0.20084301 1.81094 0.27728501
-0.240486 1.06795 0.768942
-0.55316198 1.48496 0.35393599
-0.188638 1.82682 0.227299
-0.193359 1.11466 0.61968601
-0.237801 1.41623 0.75658399
-0.58197498 1.12894 0.35393599
-0.27487001 1.08638 0.35393599
-0.20084301 1.72377 0.21774399
-0.241033 1.1117001 0.35393599
-0.188638 0.88310999 0.25021401
-0.21608999 1.67397 0.59802997
-0.69995898 1.6285501 0.35393599
-0.234611 1.8076 0.770311
-0.217657 1.37166 0.72393203
-0.32183799 1.63332 0.35393599
-0.188638 1.57671 0.309847
-0.228714 1.52571 0.77137202
-0.188638 1.85866 0.45819199
-0.24067201 1.67036 0.76412702
-0.188638 1.69673 0.49511999
-0.29076701 1.14838 0.78110099
-0.46459001 1.60785 0.78110099
-0.228561 1.14209 0.77071398
-0.42528701 1.11975 0.78110099
-0.188638 1.7341501 0.28025001
-0.22526699 1.14424 0.70281303
-0.188638 1.06297 0.508802
-0.215165 1.51987 0.71324098
-0.37771001 1.81963 0.35393599
-0.316838 1.32093 0.35393599
-0.47608599 1.2877899 0.78110099
-0.188638 1.35233 0.31396201
-0.209334 1.80286 0.59802997
-0.190543 0.97954202 0.60760403
-0.188638 1.44661 0.47760201
-0.20919301 1.61543 0.63385302
-0.21254 1.78083 0.70198101
-0.210623 1.27039 0.69375497
-0.62776202 1.40728 0.78110099
-0.66035599 1.59104 0.35393599
-0.53672498 1.08351 0.78110099
-0.53066301 1.56477 0.78110099
-0.71330601 1.62166 0.35393599
-0.710944 1.47849 0.35393599
-0.221595 1.59877 0.68706
-0.235057 1.21237 0.77664602
-0.226622 1.80439 0.76239699
-0.45970199 1.35344 0.78110099
-0.188638 0.97023302 0.30544299
-0.239756 1.0899 0.59802997
-0.20529599 1.50542 0.67089999
-0.188638 1.57866 0.477328
-0.219294 1.65553 0.59802997
-0.188638 1.17221 0.43019801
-0.57831502 1.73192 0.35393599
-0.24067201 1.0917 0.76323599
-0.20084301 1.03827 0.297804
-0.36412299 1.1547199 0.78110099
-0.49791601 1.07599 0.78110099
-0.188638 1.19797 0.279733
-0.260167 1.1852601 0.78110099
-0.188638 1.56357 0.53801
-0.237712 1.49833 0.756203
-0.243131 1.44315 0.78110099
-0.188638 1.5775599 0.34062299
-0.22508299 1.17415 0.70202202
-0.188638 1.77301 0.43137601
-0.24067201 1.4776 0.63984501
-0.188638 0.87760198 0.49953499
-0.42238101 0.99445498 0.78110099
-0.20630901 0.99904799 0.621481
-0.34333599 1.81803 0.78110099
-0.64073801 1.80005 0.35393599
-0.55953503 1.11167 0.35393599
-0.188638 0.97675401 0.373487
-0.30470499 1.16321 0.78110099
-0.20094199 1.83029 0.65222102
-0.20084301 0.881612 0.21140601
-0.188638 1.53879 0.55501097
-0.43341899 1.3461 0.35393599
-0.66607302 1.7155401 0.35393599
-0.24617501 1.54009 0.35393599
-0.218705 1.36981 0.72842801
-0.35340601 1.3125 0.35393599
-0.24067201 1.74542 0.74927002
-0.224094 1.63767 0.75155199
-0.19435 1.7704999 0.59802997
-0.191208 1.02606 0.61045903
-0.24067201 1.86651 0.63353199
-0.56550503 1.65856 0.78110099
-0.188638 1.25923 0.39799201
-0.27519801 1.3493 0.35393599
-0.64793903 1.38604 0.78110099
-0.68137503 1.29767 0.78110099
-0.348203 1.43779 0.35393599
-0.20084301 1.6569901 0.238758
-0.57099003 1.7059 0.78110099
-0.256273 0.87073898 0.78110099
-0.20653 1.0390199 0.62243098
-0.23307499 1.14814 0.73630798
-0.24067201 1.5858901 0.76128697
-0.321049 1.45757 0.78110099
-0.24067201 1.03196 0.75581801
-0.55995101 1.55286 0.35393599
-0.20633499 1.6866699 0.621593
-0.188638 1.05931 0.516128
-0.19524699 1.74518 0.62778503
-0.188638 1.4910901 0.55956501
-0.188638 1.09893 0.36948001
-0.525868 1.1665699 0.78110099
-0.188638 1.01393 0.39416501
-0.220202 1.63904 0.734851
-0.25884399 0.91473001 0.35393599
-0.23117299 1.51011 0.59802997
-0.188638 1.71182 0.454027
-0.32619199 1.7722501 0.78110099
-0.196777 1.18733 0.63435
-0.712991 1.6104701 0.35393599
-0.211274 1.8632801 0.696549
-0.209681 1.7040401 0.68971503
-0.20469201 1.82973 0.66830999
-0.194649 1.13888 0.59947401
-0.35634801 1.65195 0.35393599
-0.62245101 1.4510601 0.78110099
-0.188638 1.33372 0.52700597
-0.217657 1.37166 0.72393203
-0.188638 0.907772 0.348598
-0.24067201 1.15266 0.78044403
-0.71319902 1.4954 0.78110099
-0.64086998 1.60975 0.78110099
-0.188638 1.5842201 0.346154
-0.207552 0.88040698 0.68057901
-0.24067201 1.11064 0.62161201
-0.188638 0.91719502 0.47059199
-0.42751399 1.68922 0.35393599
-0.43549001 1.12948 0.78110099
-0.20084301 0.94099402 0.269317
-0.188638 1.58813 0.392658
-0.188638 1.85278 0.567038
-0.31143001 1.3026299 0.78110099
-0.29681799 1.71029 0.35393599
-0.27219 0.977157 0.35393599
-0.49854901 1.38103 0.78110099
-0.55712003 0.94392401 0.78110099
-0.26226699 1.06043 0.35393599
-0.22785801 1.29115 0.767699
-0.188638 1.80891 0.40999401
-0.59355903 1.5711499 0.35393599
-0.239113 1.84914 0.35393599
-0.188638 1.6311001 0.48869801
-0.53986597 1.55987 0.78110099
-0.59724599 1.56586 0.78110099
-0.32505301 1.00465 0.35393599
-0.23711599 1.58307 0.76972699
-0.33462101 1.61836 0.78110099
-0.43728301 1.25371 0.78110099
-0.418024 0.91069502 0.78110099
-0.24067201 1.5899 0.60438901
-0.40615401 1.3253599 0.35393599
-0.24067201 1.41767 0.73355502
-0.38553801 1.75643 0.78110099
-0.201783 1.69375 0.60206503
-0.55050099 1.28455 0.78110099
-0.239133 1.17752 0.76229799
-0.37746501 1.43476 0.78110099
-0.188638 1.44687 0.43280399
-0.45374399 1.05682 0.78110099
-0.24067201 0.91256303 0.76104701
-0.188638 1.0443701 0.53048998
-0.24067201 1.21039 0.689228
-0.196218 1.28079 0.20748
-0.32129499 0.96830499 0.35393599
-0.20084301 0.87460101 0.240729
-0.25127399 1.50213 0.78110099
-0.217039 1.62867 0.72128302
-0.67306 0.93122101 0.35393599
-0.23610801 1.6987 0.749322
-0.22826999 1.54257 0.769467
-0.33637699 1.8355401 0.78110099
-0.25428 0.92071098 0.78110099
-0.30470499 1.16321 0.78110099
-0.216802 1.51941 0.66649902
-0.246636 0.89094597 0.78110099
-0.18865199 1.04194 0.598149
-0.53936303 0.98441499 0.35393599
-0.20049 1.13984 0.65028101
-0.188638 1.28308 0.34973001
-0.23628899 1.4293 0.75009799
-0.188638 1.3469501 0.51718801
-0.255613 1.22409 0.35393599
-0.24067201 1.54092 0.60695797
-0.66742599 1.1116 0.35393599
-0.51718098 1.63 0.78110099
-0.23230501 1.4191099 0.77446198
-0.24067201 1.86651 0.63353199
-0.188638 1.1886801 0.397614
-0.231619 1.18916 0.73006201
-0.227382 1.5648299 0.711887
-0.26755899 1.65371 0.78110099
-0.492962 1.21387 0.78110099
-0.24067201 1.40534 0.780572
-0.58089203 0.94698298 0.78110099
-0.260167 1.1852601 0.78110099
-0.188638 1.19064 0.402823
-0.60841399 0.99252898 0.35393599
-0.188638 1.56308 0.325012
-0.188638 1.57864 0.4623
-0.30604401 1.73226 0.78110099
-0.226303 1.60653 0.76102698
-0.226899 1.8000799 0.35393599
-0.216217 1.42056 0.66398901
-0.188638 1.43147 0.374677
-0.18999401 1.52905 0.59802997
-0.22893099 1.13083 0.77178502
-0.195209 0.942123 0.62762302
-0.23311999 1.2171299 0.77510899
-0.188638 1.74807 0.41451401
-0.20084301 0.88027197 0.261127
-0.20084301 1.58097 0.22039101
-0.682796 1.44247 0.78110099
-0.188638 0.93882602 0.50092697
-0.20653901 1.63053 0.35393599
-0.688784 1.3531801 0.78110099
-0.189899 1.21568 0.60484201
-0.24067201 1.24471 0.72692102
-0.21354499 1.53808 0.65252298
-0.24067201 1.22088 0.65511799
-0.20084301 1.18813 0.28025299
-0.188638 1.70199 0.28999001
-0.188638 1.19432 0.249222
-0.188638 1.30457 0.28775299
-0.188638 0.97544903 0.345411
-0.20084301 1.07838 0.33054501
-0.41701299 1.37166 0.78110099
-0.20084301 1.26702 0.32032999
-0.188638 1.65319 0.235715
-0.188638 1.38267 0.56633902
-0.24067201 1.86742 0.77993
-0.188638 1.61789 0.48128101
-0.30711299 1.00641 0.35393599
-0.22613101 0.88887602 0.76028901
-0.42056 1.7902499 0.35393599
-0.64868999 1.79448 0.35393599
-0.41678399 1.03381 0.78110099
-0.259644 1.01526 0.78110099
-0.20084301 1.19998 0.218363
-0.70356703 1.56698 0.78110099
-0.207673 1.43906 0.62733197
-0.394532 0.95521599 0.35393599
-0.389438 0.98790002 0.35393599
-0.188638 1.08029 0.46065
-0.188638 1.69677 0.239492
-0.442368 1.79934 0.35393599
-0.66746801 0.97722203 0.35393599
-0.24067201 1.7350399 0.767111
-0.188638 1.36349 0.461858
-0.21760701 1.56669 0.72372001
-0.230683 1.23289 0.773175
-0.22104301 1.66053 0.59802997
-0.188638 1.51849 0.59320998
-0.27986801 1.80459 0.78110099
-0.68692303 0.945467 0.35393599
-0.24067201 0.95884001 0.600537
-0.188638 1.30944 0.53588802
-0.20084301 1.30742 0.296114
-0.24067201 1.2723 0.71379203
-0.24067201 1.4641 0.776169
-0.342013 1.00999 0.78110099
-0.20413999 1.25519 0.66593897
-0.20084301 1.0284899 0.248705
-0.19849201 1.74883 0.59802997
-0.60890698 1.23133 0.78110099
-0.624053 1.2074 0.78110099
-0.490949 1.84377 0.35393599
-0.24067201 1.20391 0.74351603
-0.556831 1.7764 0.35393599
-0.22558001 1.8555599 0.35393599
-0.205135 1.1936899 0.616445
-0.202154 1.28448 0.35393599
-0.53426802 0.88927698 0.78110099
-0.24417099 1.0934401 0.35393599
-0.226298 1.84145 0.35393599
-0.188638 1.59937 0.24219
-0.188638 1.75337 0.43437299
-0.204937 1.54656 0.615596
-0.24067201 1.72864 0.62942201
-0.394541 1.09361 0.78110099
-0.53351402 0.88716799 0.78110099
-0.346237 1.54725 0.35393599
-0.484124 0.93772203 0.35393599
-0.24067201 1.67036 0.76412702
-0.50936699 1.62251 0.35393599
-0.238388 1.64779 0.759103
-0.62095702 1.53268 0.35393599
-0.231327 1.10001 0.72881103
-0.188638 1.39687 0.58721101
-0.222746 1.63155 0.69199699
-0.320667 1.26601 0.78110099
-0.39974499 1.51768 0.35393599
-0.225658 1.27338 0.70449102
-0.48590001 1.44029 0.78110099
-0.188638 1.10429 0.244423
-0.188638 0.88945597 0.22645301
-0.41678399 1.03381 0.78110099
-0.61840701 1.78706 0.35393599
-0.22129101 1.28022 0.73952401
-0.208288 1.81197 0.62997198
-0.35830599 0.99430799 0.78110099
-0.216049 1.83254 0.71703398
-0.234199 1.59664 0.74113202
-0.24067201 1.57219 0.65746999
-0.24067201 1.1033601 0.61717999
-0.43969399 0.87261999 0.78110099
-0.199452 1.67339 0.645827
-0.224058 1.8411601 0.75139302
-0.66179001 1.1246001 0.35393599
-0.222746 1.63155 0.69199699
-0.55373698 1.29927 0.78110099
-0.661874 1.58921 0.78110099
-0.32387501 1.7085 0.78110099
-0.188638 1.02355 0.316246
-0.24067201 1.7582 0.681382
-0.608464 0.94244897 0.78110099
-0.33787599 0.99616301 0.35393599
-0.188638 1.82072 0.355261
-0.23713499 0.88228202 0.59802997
-0.20084301 1.7955 0.26748699
-0.320667 1.26601 0.78110099
-0.63611603 0.96499503 0.78110099
-0.188638 1.78109 0.340828
-0.30391499 1.04289 0.35393599
-0.201649 1.67996 0.60148901
-0.20258 1.71778 0.65924603
-0.21414 1.68003 0.70884401
-0.20084301 0.94392103 0.34308001
-0.20084301 1.83117 0.246185
-0.23567501 1.80641 0.74746299
-0.522879 1.62923 0.78110099
-0.200848 1.78046 0.59802997
-0.44611499 1.71565 0.78110099
-0.46374199 1.12972 0.78110099
-0.668253 1.49796 0.35393599
-0.198962 1.1415499 0.64372498
-0.20084301 1.71392 0.305572
-0.28238201 1.33182 0.35393599
-0.221498 1.22747 0.68664402
-0.40453401 0.88189697 0.78110099
-0.26880699 1.6000201 0.35393599
-0.188638 0.89356601 0.2111
-0.71286601 1.1917599 0.35393599
-0.20084301 1.33349 0.27682
-0.24067201 1.1079201 0.69840199
-0.210756 1.78623 0.64055902
-0.30164099 1.72914 0.35393599
-0.59826201 1.36176 0.78110099
-0.218705 1.36981 0.72842801
-0.42399701 0.97613001 0.78110099
-0.63799202 1.70136 0.35393599
-0.188638 1.37135 0.456891
-0.18995 1.18419 0.60506099
-0.20084301 1.1858 0.237569
-0.232869 1.18857 0.77071601
-0.188638 1.19015 0.30293301
-0.50005001 1.55492 0.35393599
-0.24067201 1.61464 0.77652901
-0.188638 1.2221299 0.54671103
-0.688784 1.3531801 0.78110099
-0.218402 0.87935901 0.673361
-0.19206101 1.45149 0.61411798
-0.41696101 1.75131 0.35393599
-0.487131 1.36094 0.78110099
-0.188638 1.14034 0.476174
-0.20084301 1.2456 0.261967
-0.36572099 1.62853 0.78110099
-0.20104399 1.16275 0.65265799
-0.25118101 1.33945 0.78110099
-0.188638 1.74119 0.59070301
-0.23603401 1.31282 0.769979
-0.63494098 1.32392 0.78110099
-0.48559201 0.92213798 0.35393599
-0.223132 1.45731 0.69365197
-0.41653001 1.69877 0.35393599
-0.59419698 0.94467503 0.35393599
-0.20084301 1.72982 0.29880199
-0.188638 1.44322 0.55805099
-0.372767 1.56012 0.35393599
-0.188638 1.3228101 0.28762999
-0.281829 1.31813 0.35393599
-0.59435999 1.66825 0.78110099
-0.52055299 1.47377 0.78110099
-0.617778 1.0218 0.35393599
-0.237326 1.0142 0.77844602
-0.24067201 1.11502 0.668652
-0.26673099 1.62186 0.35393599
-0.188638 1.2089 0.356033
-0.228701 1.43818 0.77131498
-0.24067201 1.75386 0.63355398
-0.24067201 1.70658 0.630714
-0.70364499 1.47369 0.78110099
-0.19496199 0.87276399 0.62656301
-0.24067201 1.20391 0.74351603
-0.188638 1.10054 0.28475901
-0.457212 1.56034 0.35393599
-0.188638 1.2535 0.25836799
-0.188638 1.37371 0.357759
-0.188638 1.16524 0.45125499
-0.188638 1.0743001 0.57653999
-0.26336199 1.63238 0.35393599
-0.68715101 1.20067 0.35393599
-0.21581601 1.2565 0.662265
-0.188638 1.4841 0.50410497
-0.518224 1.58281 0.78110099
-0.188638 1.12747 0.26106599
-0.42602 1.54801 0.78110099
-0.214232 1.23051 0.70923901
-0.232605 1.62061 0.734294
-0.192009 1.85551 0.60009003
-0.201525 1.2735 0.59802997
-0.188638 1.28703 0.28095299
-0.23438799 1.04547 0.74194199
-0.41626 1.77443 0.78110099
-0.188638 1.75337 0.43437299
-0.40795401 0.99870503 0.35393599
-0.67394102 1.5497 0.78110099
-0.66706902 1.84395 0.35393599
-0.46116301 0.91868103 0.78110099
-0.51345199 1.5724699 0.78110099
-0.188638 1.70412 0.44233599
-0.26384899 1.23115 0.35393599
-0.54162902 1.20137 0.78110099
-0.188638 1.74383 0.38834101
-0.190282 1.59795 0.60049301
-0.226542 1.2511899 0.76205301
-0.24067201 1.07456 0.70887601
-0.24067201 1.38924 0.75412297
-0.58903199 1.02833 0.35393599
-0.447209 1.1169 0.78110099
-0.188638 1.0807 0.25400999
-0.20084301 1.70524 0.226239
-0.24067201 1.67036 0.76412702
-0.30365601 1.78417 0.35393599
-0.237379 1.85709 0.75477397
-0.51102298 1.02166 0.78110099
-0.24013899 1.51484 0.76661402
-0.24067201 1.05195 0.726116
-0.20084301 0.90948898 0.308074
-0.219807 1.43459 0.73315603
-0.294155 1.57823 0.78110099
-0.23376299 1.4457099 0.73926097
-0.188638 1.76687 0.25229901
-0.400859 1.72221 0.78110099
-0.24067201 1.74061 0.60717398
-0.20182601 0.88974297 0.35393599
-0.188638 1.25533 0.355755
-0.188638 1.18286 0.54209
-0.47932801 1.16224 0.78110099
-0.59662998 1.64818 0.35393599
-0.21973699 1.08901 0.35393599
-0.70741898 0.891949 0.35393599
-0.193685 1.0845701 0.59802997
-0.51246202 1.53879 0.35393599
-0.39340299 1.62029 0.35393599
-0.20084301 1.72786 0.27661401
-0.23567501 1.80641 0.74746299
-0.188638 1.82682 0.227299
-0.237296 1.75922 0.75441998
-0.217315 1.72123 0.59802997
-0.233128 1.07696 0.73653698
-0.24067201 1.39135 0.77459699
-0.188638 0.98008299 0.382651
-0.64755303 1.27939 0.78110099
-0.70440799 1.3354501 0.78110099
-0.202503 1.71202 0.59802997
-0.188638 1.0131299 0.35806
-0.201672 1.81182 0.65535098
-0.20234101 1.43641 0.60446
-0.40964201 1.28678 0.78110099
-0.20084301 1.02837 0.268852
-0.22862101 1.63106 0.77097303
-0.24067201 1.81949 0.66675502
-0.45791 1.5934 0.78110099
-0.222684 1.19443 0.69173199
-0.188638 1.64001 0.50664598
-0.20084301 1.33349 0.27682
-0.630086 1.73937 0.35393599
-0.374892 1.13596 0.78110099
-0.282031 1.44802 0.35393599
-0.24067201 1.56905 0.72179598
-0.188638 1.6446199 0.55319297
-0.188638 1.47279 0.489802
-0.20084301 1.70476 0.306128
-0.23196 1.70239 0.77418798
-0.35253999 1.0122 0.35393599
-0.20084301 1.60074 0.258405
-0.24067201 1.13299 0.647744
-0.188638 1.79149 0.315106
-0.374892 1.13596 0.78110099
-0.24067201 0.964387 0.61841702
-0.633766 1.61334 0.78110099
-0.20228601 1.1348 0.35393599
-0.62630701 1.62046 0.35393599
-0.565745 0.92120099 0.78110099
-0.27813101 1.41745 0.78110099
-0.237496 1.4527 0.59802997
-0.41992801 1.75836 0.35393599
-0.213917 1.57627 0.70788801
-0.482934 1.12017 0.78110099
-0.51308602 1.6058199 0.78110099
-0.43811199 1.67783 0.78110099
-0.226662 1.1657701 0.708799
-0.23254099 1.376 0.77464998
-0.19179299 1.7382801 0.61296898
-0.21529201 1.04599 0.66002101
-0.188638 0.886823 0.36493701
-0.188638 0.97093499 0.32012299
-0.32423601 1.2484 0.78110099
-0.30735701 1.76474 0.78110099
-0.65686703 0.906385 0.78110099
-0.29710999 0.87987399 0.78110099
-0.34483099 1.84773 0.78110099
-0.55793202 1.77522 0.35393599
-0.188638 1.75166 0.24839699
-0.28205201 1.35648 0.78110099
-0.24088 1.76689 0.78110099
-0.237305 1.60489 0.75445598
-0.286901 1.07504 0.78110099
-0.20084301 1.80239 0.310269
-0.188638 1.85315 0.240052
-0.24067201 1.48402 0.75264299
-0.32747099 1.61759 0.78110099
-0.188638 1.63009 0.56886202
-0.22364201 1.68764 0.69584298
-0.20728 1.56227 0.67941201
-0.558851 1.07786 0.78110099
-0.35473299 1.59839 0.35393599
-0.33325601 1.43053 0.78110099
-0.30159199 1.16708 0.78110099
-0.389615 1.31625 0.78110099
-0.220388 1.0592901 0.68188
-0.32545799 0.98836601 0.35393599
-0.70887399 1.85379 0.35393599
-0.33672899 1.5921299 0.35393599
-0.238322 1.28769 0.75882101
-0.381549 0.99902302 0.35393599
-0.212577 1.6746 0.70213997
-0.333698 1.5902801 0.35393599
-0.68855399 1.449 0.78110099
-0.46838599 1.72982 0.78110099
-0.198552 1.5589499 0.64196801
-0.318477 1.61138 0.35393599
-0.20084301 1.67744 0.230947
-0.20084301 1.1173199 0.28149799
-0.188638 1.68172 0.25507101
-0.188638 1.3028001 0.269164
-0.30029401 0.88545299 0.35393599
-0.188638 1.59796 0.28393301
-0.53993899 1.41923 0.78110099
-0.47932801 1.16224 0.78110099
-0.238057 1.67282 0.75768101
-0.57083499 1.62708 0.35393599
-0.71281201 1.32064 0.78110099
-0.30527699 1.68014 0.78110099
-0.57137197 1.16175 0.78110099
-0.188638 0.86920398 0.50530797
-0.29804301 1.67203 0.35393599
-0.199431 1.46988 0.64573699
-0.53164601 1.65047 0.35393599
-0.24067201 1.09377 0.668419
-0.491191 1.65485 0.78110099
-0.20084301 1.60551 0.29944301
-0.21515299 1.1953599 0.35393599
-0.188638 1.5279599 0.414525
-0.56647903 1.01195 0.78110099
-0.22531 1.30066 0.75676697
-0.57011497 1.49874 0.78110099
-0.585747 1.10747 0.78110099
-0.65549302 0.94155997 0.78110099
-0.20297401 1.0771199 0.66093802
-0.249677 1.18186 0.35393599
-0.39030299 1.2561899 0.78110099
-0.56321001 1.12124 0.35393599
-0.24067201 1.39775 0.754089
-0.196409 1.46358 0.59802997
-0.22846501 0.99927998 0.35393599
-0.389438 0.98790002 0.35393599
