# .PCD v0.7 - Point Cloud Data file format
VERSION 0.7
FIELDS x y z
SIZE 4 4 4
TYPE F F F
COUNT 1 1 1
WIDTH 1424
HEIGHT 1
VIEWPOINT 0 0 0 1 0 0 0
POINTS 1424
DATA ascii
-1.08066 2.2976799 1.00434e-07
-1.64495 2.7373099 1.1965101e-07
-1.35427 2.6766601 1.17e-07
-1.63331 2.67822 1.17068e-07
-1.58555 2.6695399 1.16688e-07
-1.25614 2.54229 1.11126e-07
-0.77587199 2.5699501 1.12335e-07
-0.88358498 1.99643 8.7265803e-08
-1.5673 2.55071 1.11494e-07
-1.11143 2.6575501 1.16164e-07
-1.05049 1.88246 8.2284103e-08
-1.66272 2.5372 1.10904e-07
-1.41817 1.96692 8.5976197e-08
-0.91010797 1.8839 8.2347299e-08
-1.69233 1.90452 8.3248302e-08
-1.03474 1.9853801 8.6782798e-08
-0.86999398 1.92142 8.3986997e-08
-0.99897301 2.4585299 1.07465e-07
-1.00963 2.85549 1.24816e-07
-1.54705 2.5938699 1.13381e-07
-1.05301 2.69484 1.17794e-07
-1.02356 2.0962601 9.1629801e-08
-0.822393 2.19221 9.5823701e-08
-1.38332 2.82497 1.23482e-07
-1.5606101 2.5322299 1.10686e-07
-1.22463 1.9082201 8.34102e-08
-0.82135302 2.45419 1.07275e-07
-1.6787601 2.6740899 1.16887e-07
-1.4835 2.44681 1.06952e-07
-1.25702 2.6215401 1.1459e-07
-1.65418 2.72631 1.1917e-07
-0.87806499 2.6882 1.17504e-07
-0.84928101 2.72399 1.19068e-07
-0.80190098 2.4807501 1.08436e-07
-1.47516 2.4835 1.08556e-07
-1.6759599 2.05038 8.9624301e-08
-0.99603897 2.2409 9.7951897e-08
-1.6631401 1.91575 8.3739202e-08
-1.68679 2.1015601 9.1861303e-08
-1.05865 2.8027501 1.22511e-07
-1.17013 2.12608 9.29329e-08
-1.02888 2.76632 1.20919e-07
-1.63862 2.43171 1.06293e-07
-1.48901 2.7794499 1.2149199e-07
-1.32946 2.42116 1.05831e-07
-1.27022 2.8064101 1.22671e-07
-0.79072303 2.2290201 9.7432803e-08
-1.16403 2.0651901 9.0271399e-08
-1.17558 2.0495999 8.9590003e-08
-1.0565 2.8440199 1.2431499e-07
-0.98072302 2.4920001 1.08928e-07
-1.22541 2.0136199 8.8017103e-08
-0.77630401 2.5129299 1.09842e-07
-0.94898403 2.3901899 1.04478e-07
-1.6942 2.08166 9.09912e-08
-1.20432 2.7030799 1.18154e-07
-1.69643 1.98566 8.6795303e-08
-1.5606 2.7042201 1.18204e-07
-0.74864602 2.24525 9.8142301e-08
-0.91799098 2.24999 9.8349297e-08
-1.02685 2.4426799 1.06772e-07
-1.43812 2.3453 1.02516e-07
-1.45658 2.49862 1.09217e-07
-1.28877 2.7334099 1.1948001e-07
-1.34272 2.7250199 1.19113e-07
-0.77777702 2.05498 8.98251e-08
-1.21912 2.1169801 9.2535302e-08
-1.2391599 2.78298 1.2164701e-07
-1.64807 2.8234601 1.23416e-07
-1.21681 2.5475099 1.11354e-07
-1.38263 2.3338301 1.02014e-07
-0.74519998 1.9565099 8.5521101e-08
-0.75015497 1.86839 8.1669199e-08
-1.01553 2.3558199 1.02975e-07
-1.65359 2.6242001 1.14706e-07
-0.776447 1.91783 8.3830201e-08
-0.99719697 2.4344399 1.06412e-07
-1.06893 2.31321 1.01113e-07
-0.74519998 1.9565099 8.5521101e-08
-1.70286 1.90877 8.3434301e-08
-1.13247 2.21346 9.6752601e-08
-0.79105502 2.1201301 9.2672899e-08
-1.34272 2.7250199 1.19113e-07
-1.34957 2.58778 1.13115e-07
-1.60683 2.64623 1.15669e-07
-1.2437201 2.3882599 1.04393e-07
-1.58531 2.8301499 1.23709e-07
-1.4233299 1.96202 8.5761997e-08
-1.67097 1.90152 8.31173e-08
-1.16603 2.7288401 1.1928e-07
-1.28704 2.64729 1.15716e-07
-1.31234 2.0167799 8.8155304e-08
-1.09024 2.5717399 1.12413e-07
-1.59837 1.9319299 8.4446398e-08
-1.25702 2.6215401 1.1459e-07
-1.50692 2.7486 1.2014399e-07
-1.5883501 2.44364 1.06814e-07
-0.82553101 2.22294 9.7167003e-08
-1.18422 1.88844 8.2545597e-08
-0.958902 2.1480999 9.3895501e-08
-1.13626 2.7505 1.20227e-07
-1.4784 2.5655999 1.12145e-07
-0.78145099 2.33655 1.02133e-07
-1.2343 2.8315799 1.23771e-07
-1.71058 2.82412 1.2344501e-07
-0.96300399 2.5555601 1.11706e-07
-1.3448499 2.26509 9.9009398e-08
-1.45175 2.2985201 1.00471e-07
-0.99594998 2.8022001 1.2248699e-07
-1.6564699 2.6794801 1.17123e-07
-1.20994 2.2932 1.00238e-07
-1.04667 2.55249 1.11572e-07
-0.79724598 2.33236 1.0195e-07
-0.93481803 2.5631199 1.12036e-07
-1.48132 2.29019 1.00107e-07
-1.35741 2.2664101 9.9067101e-08
-1.42123 1.97893 8.6500897e-08
-0.98946798 1.98691 8.6850001e-08
-1.359 2.8599601 1.2501199e-07
-1.01052 2.01476 8.8067303e-08
-1.63419 2.5537901 1.11629e-07
-1.0484101 2.2605801 9.8812201e-08
-1.1405801 2.24261 9.8026597e-08
-1.58254 2.1628599 9.4540702e-08
-1.08604 2.1771901 9.5167003e-08
-0.85107899 2.15784 9.4321202e-08
-0.960159 2.3034699 1.00687e-07
-1.65848 1.89851 8.2985601e-08
-1.05007 2.55041 1.11481e-07
-1.0958 2.7126601 1.18573e-07
-0.96508503 2.77004 1.21081e-07
-1.09998 2.7216401 1.18966e-07
-1.5932699 2.8076899 1.22727e-07
-1.14055 1.99766 8.7319599e-08
-1.54144 2.82867 1.23644e-07
-1.14564 2.29513 1.00323e-07
-1.14279 2.8119299 1.22912e-07
-1.63419 2.5537901 1.11629e-07
-1.24254 2.52614 1.1042e-07
-0.81699502 2.4502101 1.07101e-07
-1.28793 2.8166201 1.23117e-07
-0.75856799 1.99194 8.70698e-08
-1.56775 2.66184 1.16352e-07
-1.19616 1.9826601 8.6664002e-08
-0.78419501 2.0222399 8.8394302e-08
-1.44147 2.5018301 1.09358e-07
-1.64658 2.22771 9.7375498e-08
-1.2398 2.2419801 9.7998999e-08
-0.72168398 2.78988 1.2194801e-07
-1.6135 2.2408299 9.7948998e-08
-1.60847 2.20978 9.6591599e-08
-0.95591497 2.1498401 9.3971501e-08
-1.22141 2.3234999 1.01562e-07
-1.00617 2.2492399 9.8316498e-08
-1.29844 2.7518101 1.20284e-07
-1.61414 2.5243299 1.10341e-07
-1.57223 2.4137199 1.05506e-07
-1.54616 2.6809101 1.17185e-07
-1.0005701 2.43541 1.06454e-07
-1.08324 2.2335 9.7628501e-08
-0.73789197 2.7737899 1.2124499e-07
-1.57836 1.97699 8.6416001e-08
-1.11798 2.10197 9.18794e-08
-1.48297 2.7177501 1.18796e-07
-1.3804899 2.05176 8.9684697e-08
-1.55037 2.3217199 1.01485e-07
-1.31445 2.7000301 1.18021e-07
-0.84631699 2.3609099 1.03198e-07
-0.72168398 2.78988 1.2194801e-07
-1.70864 2.0255001 8.8536503e-08
-1.67958 2.5539801 1.11637e-07
-1.03167 2.1073799 9.2115599e-08
-1.5154999 1.96381 8.584e-08
-0.83934599 2.6363599 1.15238e-07
-1.18603 2.2557099 9.8599202e-08
-1.09883 2.1811399 9.53399e-08
-0.79446399 2.3852799 1.04263e-07
-1.55436 2.2706299 9.9251402e-08
-0.88265598 2.1006601 9.1821697e-08
-1.28108 2.41397 1.05517e-07
-0.80973601 1.92418 8.4107803e-08
-1.54705 2.5938699 1.13381e-07
-1.1325001 2.61268 1.14203e-07
-0.734869 2.2360799 9.7741299e-08
-1.6720999 2.2374799 9.78023e-08
-1.29144 2.0051 8.7645098e-08
-0.820328 2.6695299 1.16688e-07
-1.48002 2.4574001 1.07416e-07
-1.26379 2.1331999 9.3244203e-08
-1.60329 2.48593 1.08662e-07
-0.93472999 2.1212399 9.2721699e-08
-0.842251 2.0531399 8.9744901e-08
-1.43293 2.84709 1.24449e-07
-1.41818 2.5364201 1.10869e-07
-1.29059 2.75583 1.2046e-07
-1.00931 1.92443 8.4118803e-08
-1.69575 2.08411 9.1098599e-08
-0.92074698 2.7307799 1.19365e-07
-0.84138697 2.3180301 1.01323e-07
-1.11682 2.65207 1.15924e-07
-1.33612 2.7126501 1.18573e-07
-1.5883501 2.44364 1.06814e-07
-1.18563 2.70435 1.1821e-07
-1.25863 2.84835 1.24504e-07
-1.28136 2.47507 1.08188e-07
-1.14028 2.2587199 9.8730801e-08
-0.833893 2.4377699 1.06557e-07
-1.3236099 2.75014 1.20211e-07
-1.37951 2.34342 1.02433e-07
-1.5434901 2.07146 9.0545399e-08
-0.74519998 1.9565099 8.5521101e-08
-1.68077 2.8215899 1.23334e-07
-1.35586 2.5056601 1.09525e-07
-1.47858 2.6216099 1.14593e-07
-1.5830801 2.6314399 1.15023e-07
-1.62941 2.63433 1.15149e-07
-1.55436 2.2706299 9.9251402e-08
-1.6118 1.99833 8.73491e-08
-1.52342 1.95026 8.5247798e-08
-0.78887898 2.0141301 8.8039798e-08
-1.59837 1.9319299 8.4446398e-08
-0.75767201 2.7223599 1.18997e-07
-1.51929 1.8803 8.21897e-08
-1.29152 2.73808 1.19684e-07
-1.32427 2.8511 1.24625e-07
-1.25831 2.3293099 1.01817e-07
-0.91775799 2.2161801 9.6871197e-08
-1.2986 2.1221199 9.2760096e-08
-1.6104701 1.98996 8.6983299e-08
-1.5284899 2.5734999 1.1249e-07
-0.88063198 2.24281 9.80354e-08
-0.72899401 1.91706 8.3796799e-08
-1.46313 2.73943 1.1974301e-07
-1.04388 2.79985 1.2238399e-07
-1.6053801 1.9474 8.5122998e-08
-1.3099999 2.5253401 1.10385e-07
-0.98488498 2.11782 9.2572101e-08
-1.32344 2.3477299 1.02622e-07
-1.59711 1.92767 8.4260499e-08
-1.14211 2.1552999 9.4210499e-08
-1.2247 2.24441 9.8105602e-08
-1.1882401 2.7353401 1.1956401e-07
-1.6118 1.99833 8.73491e-08
-1.36286 1.94362 8.4957499e-08
-1.59701 2.6170599 1.14394e-07
-1.23501 2.18541 9.5526403e-08
-1.22164 2.7551999 1.2043201e-07
-1.28046 2.5736799 1.12498e-07
-1.44124 2.7569599 1.20509e-07
-0.990426 2.2743599 9.9414599e-08
-1.57742 2.4682 1.07888e-07
-1.0958 2.7126601 1.18573e-07
-1.59904 2.15609 9.4244903e-08
-0.90530401 2.23592 9.7734201e-08
-0.874852 2.2773499 9.9545197e-08
-0.89288503 2.4342201 1.06402e-07
-1.26528 2.7330101 1.19463e-07
-1.18696 1.94326 8.4941703e-08
-1.37238 2.4402699 1.06667e-07
-0.78887898 2.0141301 8.8039798e-08
-1.00852 1.9416 8.48692e-08
-1.69432 2.65588 1.16091e-07
-1.61608 2.0132999 8.8003297e-08
-1.1075 2.5323801 1.10693e-07
-0.838278 2.0632999 9.0189097e-08
-1.68381 2.1973901 9.6050201e-08
-1.03623 1.87421 8.1923702e-08
-0.95758599 2.0032499 8.7563997e-08
-1.06214 2.5820701 1.12865e-07
-1.58514 2.4928701 1.08966e-07
-1.29564 2.71821 1.18816e-07
-1.3637201 2.8294499 1.2367801e-07
-0.82658702 2.1252 9.2894602e-08
-1.40037 2.4641399 1.0771e-07
-1.56752 2.6733401 1.16854e-07
-1.05024 2.6256399 1.14769e-07
-1.09386 2.74859 1.2014399e-07
-0.729415 2.6207199 1.14554e-07
-0.96721601 2.42676 1.06076e-07
-0.94882399 1.88267 8.2293496e-08
-1.48283 2.00037 8.7438401e-08
-1.55436 2.2706299 9.9251402e-08
-1.46832 2.55825 1.11824e-07
-1.23189 1.9455 8.5039602e-08
-1.01292 2.4578199 1.07434e-07
-1.00002 2.0090899 8.7819402e-08
-1.05301 2.69484 1.17794e-07
-1.56078 2.7309401 1.19372e-07
-1.19189 1.9920501 8.7074397e-08
-1.5276099 2.71193 1.18541e-07
-1.69807 1.97504 8.63309e-08
-1.6874501 1.8951499 8.2838902e-08
-1.32427 2.8511 1.24625e-07
-0.76314199 2.6180999 1.1444e-07
-0.74019998 2.19784 9.6069698e-08
-1.09157 2.15009 9.3982798e-08
-1.57177 2.32149 1.01475e-07
-0.91106802 2.33582 1.02101e-07
-0.884561 2.4393401 1.06626e-07
-1.57414 2.4598601 1.07523e-07
-1.17206 2.09216 9.1450602e-08
-0.91427898 2.6943099 1.17771e-07
-0.87541997 2.3673999 1.03481e-07
-0.88953102 2.46773 1.07867e-07
-1.64864 1.9187 8.3868201e-08
-0.963377 2.3631401 1.03295e-07
-1.22953 1.94525 8.5028901e-08
-1.19043 2.7416899 1.19842e-07
-1.65888 2.3826399 1.04147e-07
-0.92021799 2.3714099 1.03657e-07
-1.44634 1.90582 8.3305302e-08
-1.18029 2.7553301 1.20438e-07
-1.6769 2.43291 1.06345e-07
-1.0137399 2.6853399 1.17379e-07
-1.12297 2.5188999 1.10104e-07
-0.77144098 2.40944 1.05319e-07
-1.3123 2.0155001 8.8099704e-08
-0.87593699 2.3319199 1.01931e-07
-1.36202 2.20333 9.6309599e-08
-1.2470599 1.9877501 8.6886402e-08
-1.4410501 1.91401 8.3663103e-08
-1.38263 2.3338301 1.02014e-07
-1.57414 2.4598601 1.07523e-07
-0.72513998 2.4090099 1.053e-07
-1.1619101 2.8641601 1.25195e-07
-0.84863198 2.4983499 1.09206e-07
-1.33637 2.2809401 9.9702298e-08
-1.0782599 2.7367401 1.1962599e-07
-1.64693 2.08531 9.1150802e-08
-1.62879 1.96075 8.5706297e-08
-1.0529799 2.05951 9.00232e-08
-1.02615 2.5799799 1.12774e-07
-0.87307602 2.7164199 1.18737e-07
-1.10966 2.2386999 9.7855697e-08
-1.64608 2.5115199 1.09781e-07
-0.97823799 2.83075 1.2373501e-07
-1.35235 2.7125299 1.18567e-07
-1.49111 2.8383501 1.24067e-07
-0.715177 2.17678 9.5149097e-08
-1.03095 2.0847499 9.1126502e-08
-1.3289 2.3108699 1.01011e-07
-0.82872802 2.4883699 1.08769e-07
-1.6354899 2.1429501 9.36706e-08
-1.48282 2.6947999 1.17792e-07
-0.88265598 2.1006601 9.1821697e-08
-1.04637 1.9907399 8.7017298e-08
-1.69477 2.5547299 1.1167e-07
-1.2522 2.6904299 1.17601e-07
-1.10357 2.6189899 1.14479e-07
-0.82753199 2.7260799 1.1916e-07
-1.20838 2.7716899 1.2115299e-07
-1.48335 2.51565 1.09962e-07
-1.22541 2.0136199 8.8017103e-08
-1.43293 2.84709 1.24449e-07
-1.28555 2.2732301 9.9365103e-08
-0.75857598 2.5998099 1.1364e-07
-1.7075599 2.7683599 1.21008e-07
-1.1785001 2.82054 1.23289e-07
-1.61775 2.2985499 1.00472e-07
-1.08178 2.66961 1.16691e-07
-1.5286 2.43641 1.06498e-07
-1.65065 2.2616601 9.8859502e-08
-1.22145 2.7369599 1.19635e-07
-0.903759 2.4990799 1.09237e-07
-0.79185301 2.0069201 8.7724501e-08
-1.41539 2.4282401 1.06141e-07
-1.43995 2.43256 1.0633e-07
-0.99399102 2.4837 1.08565e-07
-1.4323699 2.4381001 1.06572e-07
-1.44539 2.8290501 1.23661e-07
-1.25096 2.62041 1.14541e-07
-0.86610597 2.0210299 8.8341203e-08
-0.95619899 2.14148 9.3606403e-08
-1.21384 2.6399 1.15393e-07
-0.96305197 2.7142401 1.18642e-07
-1.66745 1.94848 8.5170001e-08
-1.46782 2.3724 1.037e-07
-0.96261698 2.0002699 8.7433598e-08
-1.20082 2.76301 1.20774e-07
-1.6976 2.00964 8.7843297e-08
-1.5988899 1.94183 8.4879602e-08
-1.4926 2.6688099 1.16656e-07
-1.63243 2.12639 9.2946699e-08
-0.84123302 2.54948 1.11441e-07
-1.37493 2.5420499 1.11116e-07
-1.4694 2.5463901 1.11305e-07
-0.96300399 2.5555601 1.11706e-07
-1.05007 2.55041 1.11481e-07
-0.91422802 2.5905399 1.13235e-07
-1.5506001 2.3759401 1.03855e-07
-1.4739701 2.5536201 1.11621e-07
-0.803478 2.0785699 9.0856503e-08
-1.58032 2.2548499 9.8561799e-08
-0.72545099 2.1438799 9.3711101e-08
-0.83411801 2.3775599 1.03925e-07
-1.06673 2.7353899 1.1956701e-07
-1.58656 2.82496 1.23482e-07
-0.835145 2.9709499 1.29863e-07
-1.22367 3.0506799 1.33348e-07
-0.849051 3.05373 1.33482e-07
-0.888767 3.05671 1.3361201e-07
-0.98593998 2.89344 1.26475e-07
-0.79837102 2.9421599 1.28605e-07
-0.77614498 3.1122 0.00076012802
-1.31862 3.0717199 1.3426801e-07
-0.99679101 2.88677 1.2618401e-07
-1.34088 3.0466101 0.00067046098
-0.94884801 2.9586501 1.29325e-07
-0.87661803 2.9830301 1.30391e-07
-1.42557 2.97124 1.29876e-07
-0.79047197 3.0932 1.35207e-07
-1.06537 2.9497499 1.28937e-07
-1.0759701 3.0129399 1.31699e-07
-0.74200201 2.89501 1.2654399e-07
-1.27264 3.0116501 1.31642e-07
-1.64404 3.0499499 1.3331599e-07
-1.44682 2.94818 1.28868e-07
-1.52516 3.0466101 0.0067600701
-1.32181 3.0926399 1.35183e-07
-1.48481 2.9667001 1.2967701e-07
-1.1451499 3.0994301 1.35479e-07
-1.3027101 2.9333601 1.2821999e-07
-1.68406 3.0346701 1.3264901e-07
-1.60247 3.0787599 1.34575e-07
-1.49956 2.902 1.26849e-07
-1.3634599 2.90832 1.27126e-07
-1.57516 3.0255301 1.32249e-07
-1.03025 2.9948201 1.30907e-07
-0.95939201 2.93203 1.28162e-07
-1.01362 3.0716 1.34263e-07
-1.0605299 2.9904799 1.30717e-07
-1.13025 3.09061 1.35094e-07
-0.95570701 3.06657 1.3404301e-07
-0.960621 3.06106 1.33802e-07
-1.06682 3.0822001 1.3472599e-07
-1.32491 2.99192 1.3077999e-07
-1.57516 3.0255301 1.32249e-07
-0.76829898 3.1122 0.0061562201
-1.11938 2.9934101 1.30845e-07
-0.96396101 3.0466101 0.0076924302
-1.65459 2.97363 1.2997999e-07
-1.46304 3.08413 1.3480999e-07
-1.4861799 3.00015 1.3114e-07
-1.53801 2.9583399 1.29312e-07
-1.05558 2.8815899 1.25957e-07
-1.52469 2.87463 1.25653e-07
-1.45709 2.94561 1.28755e-07
-1.57516 3.0255301 1.32249e-07
-0.79458398 3.0817101 1.34705e-07
-1.21916 2.8775201 1.25779e-07
-1.23537 3.0836401 1.34789e-07
-1.03073 2.9881599 1.30616e-07
-1.7036 2.8815999 1.25957e-07
-0.95570701 3.06657 1.3404301e-07
-1.19796 3.0929899 1.3519799e-07
-1.1918499 2.974 1.2999701e-07
-1.08338 3.0466101 0.00028075601
-1.61526 2.92644 1.27918e-07
-1.13025 3.09061 1.35094e-07
-1.29735 3.04375 1.33046e-07
-1.53702 3.05144 1.3338099e-07
-1.05557 3.0549901 1.33537e-07
-1.12865 3.0678101 1.3409699e-07
-1.44356 2.9721999 1.2991801e-07
-1.42363 2.9354501 1.28311e-07
-1.33928 2.89048 1.2634599e-07
-1.55494 2.9087 1.27142e-07
-1.0817699 2.88659 1.26176e-07
-0.76170701 2.8898499 1.26318e-07
-0.77184498 3.05762 1.3365199e-07
-0.886383 2.94274 1.2863001e-07
-1.49033 3.1122 0.001003
-1.3920701 2.9597399 1.2937301e-07
-1.1255 3.0732999 1.34337e-07
-1.0759701 3.0129399 1.31699e-07
-1.65742 2.9532001 1.29087e-07
-1.26238 2.99266 1.30812e-07
-1.15005 2.9962001 1.30967e-07
-0.72159803 3.0144 1.3176199e-07
-1.09633 3.05304 1.3345201e-07
-0.94968802 3.05878 1.33702e-07
-0.96902698 3.08342 1.34779e-07
-1.3098 2.9386401 1.2845101e-07
-1.1204 2.92062 1.27663e-07
-1.60109 3.06341 1.33905e-07
-1.4347399 2.9270799 1.27945e-07
-0.861305 3.0606699 1.3378499e-07
-1.25937 3.0466101 0.0051715202
-0.77096301 3.0708599 1.3423001e-07
-1.44837 2.8794401 1.25863e-07
-1.38458 2.9116001 1.27269e-07
-0.912579 2.9326799 1.2819e-07
-0.71593398 3.0848801 1.3484301e-07
-1.30524 2.9495101 1.28926e-07
-1.28837 3.01566 1.31817e-07
-1.09718 2.8889201 1.26278e-07
-1.13025 3.09061 1.35094e-07
-1.55547 3.1122 0.0100308
-1.23115 2.88463 1.2609e-07
-1.32491 2.99192 1.3077999e-07
-1.30316 3.06025 1.33767e-07
-0.78182697 2.9653499 1.29619e-07
-0.79579502 3.0968399 1.3536599e-07
-1.28837 3.01566 1.31817e-07
-0.97256601 3.0672801 1.34074e-07
-1.1813101 2.9553001 1.29179e-07
-0.96326798 3.0483401 1.33246e-07
-1.6422499 3.0949099 1.35281e-07
-0.99969798 3.00474 1.3134e-07
-1.58568 3.0216999 1.3208199e-07
-0.835145 2.9709499 1.29863e-07
-1.04106 2.8717 1.2552501e-07
-0.84459698 3.1122 0.0021458799
-1.31054 3.0139599 1.3174299e-07
-0.73045403 3.0413201 1.3293899e-07
-0.85375601 3.0864401 0.0067044701
-1.5384099 3.08798 1.34979e-07
-0.85889602 3.0684299 1.3412399e-07
-1.3634599 2.90832 1.27126e-07
-1.1169699 3.0780799 1.34546e-07
-1.44187 3.1026299 1.35619e-07
-1.42299 3.1122 0.0109225
-1.638 3.06357 1.33912e-07
-1.61154 2.89746 1.26651e-07
-0.85375601 3.0864401 0.0067044701
-0.960621 3.06106 1.33802e-07
-1.0422699 2.91043 1.27218e-07
-1.22746 3.0262499 1.3227999e-07
-1.4347399 2.9270799 1.27945e-07
-1.49357 3.0864401 0.0088915396
-1.1900899 2.9317801 1.28151e-07
-1.40777 2.93121 1.28126e-07
-0.79655403 3.1023901 1.35609e-07
-1.38765 2.9825399 1.3037e-07
-1.2224 3.0669999 1.3406201e-07
-1.64088 2.94081 1.2854601e-07
-1.3378201 2.8740301 1.25627e-07
-1.10704 2.90905 1.2715699e-07
-1.34223 3.0634601 1.3390699e-07
-1.15066 3.02543 1.3224501e-07
-0.98599702 2.9008601 1.268e-07
-0.98910898 2.94572 1.2876001e-07
-1.5236599 3.0523 1.3341899e-07
-0.83492899 3.0308199 1.3248e-07
-1.02119 3.0041399 1.31314e-07
-1.46742 3.0664201 1.34036e-07
-1.52535 3.05179 1.3339699e-07
-1.5616 3.0864401 0.0074831699
-1.04862 2.9316299 1.2814399e-07
-0.966205 3.0694599 1.34169e-07
-0.96364802 2.9205301 1.2765901e-07
-1.0993 3.0613101 1.33813e-07
-0.99421698 3.1054699 1.3574299e-07
-1.07157 3.0376799 1.3278e-07
-1.42425 2.9794199 1.30233e-07
-1.37541 2.9756501 1.30069e-07
-0.98257601 2.9486899 1.2888999e-07
-0.95822102 3.02823 1.3236701e-07
-1.0679801 3.0801301 1.34635e-07
-0.84492803 3.0025599 1.31245e-07
-0.88880002 2.97844 1.3019e-07
-1.00211 3.08412 1.3480999e-07
-1.53801 2.9583399 1.29312e-07
-1.5203 2.99494 1.30912e-07
-0.94372398 3.06339 1.33904e-07
-0.71760899 2.87637 1.25729e-07
-1.62209 3.0808899 1.3466899e-07
-1.54944 3.0534799 1.33471e-07
-0.795394 2.9379001 1.2841799e-07
-1.7108099 3.0750899 1.34415e-07
-1.29952 2.8696401 1.2543499e-07
-0.96465898 3.0636301 1.3391499e-07
-0.98354501 3.0466101 0.0068270899
-0.76779503 2.92238 1.2773999e-07
-1.11485 3.0901 1.35072e-07
-0.96643502 3.0234399 1.32157e-07
-1.62209 3.0808899 1.3466899e-07
-1.5565799 3.0302501 1.32455e-07
-1.41758 2.92556 1.2787901e-07
-1.00407 3.0264699 1.3229e-07
-1.13025 3.09061 1.35094e-07
-1.31054 3.0139599 1.3174299e-07
-0.83332402 3.1122 0.0053673
-1.3419501 3.0018499 1.3121399e-07
-1.68853 2.8691199 1.25412e-07
-1.61242 2.92834 1.2800101e-07
-1.56625 3.07375 1.3435699e-07
-1.29257 3.0870399 1.3493801e-07
-1.60109 3.06341 1.33905e-07
-1.11081 3.0315299 1.32511e-07
-1.5236599 3.0523 1.3341899e-07
-1.64088 2.94081 1.2854601e-07
-1.1590101 3.0657799 1.34008e-07
-1.71103 3.0623901 1.3386e-07
-1.1536601 2.9850299 1.3047899e-07
-1.381 2.93542 1.2831001e-07
-0.87893498 3.0864401 0.00059334701
-1.3634599 2.90832 1.27126e-07
-0.71760899 2.87637 1.25729e-07
-1.5646 3.1015501 1.3557199e-07
-1.04037 2.99558 1.3093999e-07
-1.22838 2.9267099 1.27929e-07
-1.0082901 3.0829301 1.34758e-07
-1.57805 3.0055699 1.3137701e-07
-0.92039502 3.03426 1.3263001e-07
-0.93706298 2.9855199 1.305e-07
-1.51041 3.10776 1.35843e-07
-0.90116799 2.9930301 1.3082899e-07
-0.82053101 3.0567901 1.33615e-07
-1.59392 3.0000999 1.31137e-07
-1.5236599 3.0523 1.3341899e-07
-0.92179102 3.0836 1.34787e-07
-0.79837102 2.9421599 1.28605e-07
-0.89094502 2.9974201 1.3102e-07
-0.74893099 3.0534201 1.3346801e-07
-1.61427 3.0557599 1.3357e-07
-1.03669 3.0469899 1.33187e-07
-0.95338899 2.9913499 1.30755e-07
-1.3268 3.0755999 1.34437e-07
-1.229 3.0466101 0.0023952201
-0.77184498 3.05762 1.3365199e-07
-1.60419 3.0482099 1.3323999e-07
-1.54471 3.0466101 0.0115551
-0.993828 3.06917 1.3415701e-07
-1.06675 3.0864401 0.0045196498
-1.5297101 2.91786 1.2754199e-07
-0.76394099 3.0473299 1.3320199e-07
-0.87609899 3.04919 1.33283e-07
-1.46494 2.9974 1.3101899e-07
-1.56999 2.9363401 1.2835e-07
-0.72545499 3.06233 1.3385799e-07
-0.92385101 3.0531399 1.33456e-07
-1.30313 3.0497501 1.33307e-07
-0.27058801 -2.6128099 -1.14209e-07
-0.21555801 -2.45857 0.0142651
-0.71235198 -3.1122 0.0238913
-0.435651 -2.6384599 -1.1533e-07
-0.257916 -2.3529401 -1.02849e-07
-0.54199499 -2.63715 -1.15272e-07
-0.53815699 -3.1073201 -1.35824e-07
-0.36432201 -2.5029099 -1.09405e-07
0.098885201 -2.34654 -1.0257e-07
-0.41243899 -2.3380101 -1.02197e-07
-0.64225501 -2.6984501 -1.17952e-07
-0.024995901 -2.2307301 -9.7507602e-08
-0.44859701 -2.25384 -9.8517603e-08
0.093291499 -2.34394 -1.02456e-07
-0.227929 -3.0521901 -1.3341401e-07
-0.55057502 -2.6129601 -1.14215e-07
-0.26647401 -2.6021099 -1.13741e-07
-0.034424901 -2.17625 -9.5125898e-08
-0.43665501 -2.4133899 -1.05492e-07
-0.0610235 -2.2347701 0.0141852
-0.66798002 -2.82215 -1.23359e-07
-0.383681 -3.0427001 -1.3299901e-07
-0.41100901 -2.7974999 -1.2228099e-07
-0.245896 -2.34201 -1.02372e-07
-0.54078901 -2.51791 -1.1006e-07
0.153374 -2.1535499 -9.4133803e-08
-0.464551 -2.3181801 -1.0133e-07
-0.33042899 -2.3125401 -1.01083e-07
-0.58627099 -2.5590701 -1.11859e-07
-0.70974499 -2.2453699 -9.8147403e-08
-0.469522 -2.3150401 -1.01193e-07
0.135673 -2.14359 -9.3698503e-08
-0.69778299 -2.2306399 -9.7503602e-08
-0.29665399 -2.1963999 -9.6007e-08
-0.413335 -2.68521 -1.17373e-07
-0.65556997 -2.40272 -1.05025e-07
-0.66693902 -2.58061 -1.12801e-07
-0.356345 -2.56618 -1.1217e-07
-0.57898998 -2.8192 -1.2323e-07
-0.25959101 -3.1122 0.020420499
-0.66093397 -2.4150801 -1.05566e-07
-0.645033 -2.72277 -1.19015e-07
-0.70359099 -2.5090101 -1.09671e-07
-0.44884399 -2.68714 -1.17458e-07
-0.69560301 -3.1122 0.028893899
-0.36477 -2.90364 -1.2692099e-07
-0.43051401 -2.84513 -1.24363e-07
-0.51903403 -2.44804 -1.07006e-07
-0.455906 -2.6331999 -1.151e-07
-0.57702899 -2.89042 -1.26343e-07
-0.54877597 -2.86444 -1.25208e-07
-0.64170402 -2.4081099 -1.05261e-07
0.113141 -2.2242301 -9.72233e-08
-0.50361198 -2.937 -1.28379e-07
-0.68471098 -3.09341 -1.35216e-07
-0.52775502 -3.0792501 -1.34597e-07
0.224696 -2.2255099 -9.7279298e-08
-0.21555801 -3.08987 0.0022376
-0.38424501 -2.2558701 -9.8606499e-08
0.24173599 -2.1733201 -9.4997901e-08
-0.40968099 -3.03546 -1.32683e-07
-0.471479 -2.92133 -1.2769399e-07
-0.21555801 -2.66958 0.0102464
-0.66100597 -2.44574 -1.06906e-07
-0.25321299 -2.28076 -9.9694297e-08
-0.60275799 -2.4971299 -1.09152e-07
-0.28117099 -2.6666501 -1.16562e-07
-0.236332 -2.40696 -1.05211e-07
-0.53655601 -2.1521001 -9.40707e-08
-0.300587 -2.51127 -1.0977e-07
-0.376616 -3.03283 -1.32568e-07
0.10022 -2.1343901 -9.3296499e-08
-0.57702899 -2.89042 -1.26343e-07
-0.648103 -2.9383099 -1.28436e-07
-0.0316833 -2.28197 -9.9747297e-08
-0.45142201 -2.1979201 -9.6073201e-08
-0.383681 -3.0427001 -1.3299901e-07
-0.36611599 -2.4045501 -1.05105e-07
-0.57039899 -2.51616 -1.09984e-07
-0.272614 -2.4358001 -1.06471e-07
0.26091701 -2.34762 -1.02617e-07
-0.560628 -2.4686301 -1.07906e-07
-0.53834701 -3.1122 0.00178941
-0.433402 -2.16501 -9.4634601e-08
-0.62892097 -2.58253 -1.12885e-07
0.13850699 -2.2815599 -9.9729199e-08
-0.47329199 -2.5309999 -1.10633e-07
-0.57118303 -2.77442 -1.21272e-07
-0.68691999 -3.0512099 -1.33371e-07
-0.46491399 -2.9674599 -1.29711e-07
0.118733 -2.2541699 -9.8531899e-08
-0.46801299 -2.73612 -1.1959899e-07
0.0175828 -2.2048199 -9.6374997e-08
-0.239601 -2.49195 -1.08926e-07
-0.21555801 -2.7581401 0.00774934
-0.23267999 -3.1122 0.018563701
-0.31906599 -2.9936199 -1.30854e-07
-0.37151399 -2.3536999 -1.02883e-07
-0.425304 -2.1510701 -9.4025303e-08
-0.59462202 -2.4657099 -1.07779e-07
-0.250716 -2.74141 -1.1983001e-07
-0.255009 -2.2012601 -9.6219203e-08
-0.52121001 -2.4818201 -1.08483e-07
-0.63713503 -2.5782499 -1.12698e-07
-0.43812701 -2.8747799 -1.25659e-07
-0.71235198 -3.1122 0.0238913
-0.44886899 -2.9553101 -1.2917999e-07
-0.65256798 -2.7244101 -1.19087e-07
-0.431696 -2.8982799 -1.26687e-07
-0.680511 -2.6950901 -1.17805e-07
-0.446053 -2.9391699 -1.28474e-07
-0.39020899 -2.26916 -9.9187197e-08
-0.537027 -2.72966 -1.19316e-07
-0.55137402 -2.5323901 -1.10693e-07
-0.407801 -2.4958799 -1.09097e-07
0.138899 -2.27808 -9.9577001e-08
-0.36802599 -2.88219 -1.2598299e-07
0.28133401 -2.1385901 -9.3479699e-08
-0.38370001 -2.2449 -9.8126598e-08
-0.041473299 -2.2127299 -9.6720598e-08
-0.71283799 -2.8550999 -1.24799e-07
-0.50282001 -3.0883999 -1.3499699e-07
-0.58750403 -2.6157999 -1.14339e-07
-0.56466502 -3.0518 -1.3339699e-07
-0.58745497 -2.51862 -1.10092e-07
-0.279782 -2.69818 -1.1794e-07
-0.36592001 -2.2718401 -9.9304202e-08
-0.57902098 -3.0334101 -1.32593e-07
-0.349287 -2.1368999 -9.3406001e-08
-0.415301 -2.4576199 -1.07425e-07
0.044770401 -2.37992 0.0110505
-0.66374803 -2.9087999 -1.27146e-07
-0.62892097 -2.58253 -1.12885e-07
-0.375267 -2.33863 -1.02224e-07
-0.71008003 -2.3615699 -1.03227e-07
-0.461667 -2.58551 -1.13015e-07
-0.28751799 -2.1587601 -9.4361503e-08
-0.302865 -2.75335 -1.20352e-07
-0.279607 -2.54685 -1.11325e-07
-0.59742099 -2.4632299 -1.0767e-07
-0.41161099 -2.78881 -1.21902e-07
-0.551745 -2.77228 -1.21179e-07
-0.48910499 -2.50334 -1.09423e-07
-0.68576503 -3.0348699 -1.3265699e-07
-0.420221 -3.0174601 -1.31896e-07
-0.67238802 -2.50296 -1.09407e-07
-0.35584301 -2.5004499 -1.09297e-07
-0.32193401 -2.71297 -1.18587e-07
-0.375296 -2.8133399 -1.22974e-07
-0.236441 -2.1916599 -9.5799599e-08
0.235057 -2.3258901 -1.01667e-07
-0.22477899 -3.01806 -1.3192199e-07
-0.69826502 -2.13483 -9.3315499e-08
-0.69256198 -2.5234799 -1.10304e-07
0.233181 -2.2936201 -1.00257e-07
-0.359254 -2.60958 -1.14067e-07
-0.30237699 -2.1395099 -9.3520001e-08
-0.51321101 -2.5369799 -1.10894e-07
-0.571136 -2.8271501 -1.23578e-07
-0.54224402 -2.89329 -1.26468e-07
-0.45019099 -2.5581501 -1.11819e-07
-0.36698899 -3.0123501 -1.31673e-07
-0.250716 -2.74141 -1.1983001e-07
0.075929098 -2.37992 0.0101523
-0.36804199 -3.0379801 -1.3279301e-07
-0.292353 -2.4584301 -1.0746e-07
-0.240115 -2.62954 -1.1494e-07
-0.223648 -2.2776101 -9.95568e-08
-0.66380697 -2.83672 -1.23996e-07
-0.62508798 -3.0536499 -1.33478e-07
0.13114101 -2.3742399 -1.0378e-07
-0.336279 -2.54475 -1.11234e-07
-0.230731 -2.37096 -1.03637e-07
0.171685 -2.3118999 -1.01055e-07
0.24173599 -2.1733201 -9.4997901e-08
-0.36802599 -2.88219 -1.2598299e-07
-0.29286599 -2.8654599 -1.25252e-07
-0.40640599 -2.21 -9.6601298e-08
-0.31904101 -2.2267001 -9.7331302e-08
-0.53992802 -2.44947 -1.07069e-07
-0.21555801 -2.6800799 0.0154804
0.244151 -2.2653699 -9.9021698e-08
-0.425304 -2.1510701 -9.4025303e-08
0.243387 -2.36256 -1.0327e-07
-0.22240099 -2.25773 -9.86876e-08
-0.61048102 -2.46942 -1.07941e-07
-0.38228399 -2.56356 -1.12056e-07
-0.51480103 -2.8463099 -1.24415e-07
-0.64262402 -2.78844 -1.21886e-07
-0.41243899 -2.3380101 -1.02197e-07
0.17515799 -2.30915 -1.00935e-07
-0.51182199 -2.79931 -1.22361e-07
-0.44742599 -2.18398 -9.5464003e-08
0.054859899 -2.37992 0.00158126
-0.292568 -2.9317999 -1.28152e-07
-0.037742302 -2.3496599 -1.02706e-07
-0.35903299 -2.7170401 -1.18765e-07
-0.68207097 -2.4674599 -1.07855e-07
-0.32765299 -2.79215 -1.2204799e-07
0.0115727 -2.2136199 -9.6759599e-08
-0.33871201 -2.4407401 -1.06687e-07
-0.55643398 -2.17553 -9.5094798e-08
0.27676699 -2.1804099 -9.5307897e-08
-0.63268501 -2.7997601 -1.2238e-07
-0.60762 -2.3947101 -1.04675e-07
-0.44884399 -2.68714 -1.17458e-07
-0.67566699 -2.8231101 -1.2340099e-07
-0.46718299 -2.5395601 -1.11007e-07
-0.65202099 -2.7409101 -1.1980801e-07
-0.67415899 -2.5778201 -1.12679e-07
0.018025 -2.14276 -9.3662003e-08
-0.583691 -2.6673999 -1.16595e-07
-0.362894 -2.95733 -1.29268e-07
-0.255409 -3.08799 -1.34979e-07
-0.31992999 -2.58021 -1.12783e-07
-0.376616 -3.03283 -1.32568e-07
-0.335311 -2.1357601 -9.3356199e-08
-0.56533402 -2.88957 -1.2630601e-07
-0.325836 -2.71995 -1.18892e-07
-0.395138 -2.6586001 -1.1621e-07
-0.21555801 -2.96422 0.00130786
-0.34466201 -2.9979501 -1.31043e-07
-0.56971997 -2.7172 -1.18772e-07
-0.67497098 -2.72649 -1.19178e-07
-0.35451201 -2.7655101 -1.20883e-07
-0.66649002 -2.9414899 -1.28576e-07
0.042020202 -2.1781299 -9.5208399e-08
-0.301741 -2.2309301 -9.75162e-08
-0.349821 -2.44712 -1.06966e-07
-0.379051 -2.27021 -9.9233098e-08
-0.30875 -2.9881499 -1.3061501e-07
-0.60219198 -2.7082801 -1.18382e-07
-0.21555801 -2.2981901 0.00297868
-0.465377 -2.5867701 -1.1307e-07
-0.57774198 -2.7826099 -1.21631e-07
-0.21698201 -2.70963 -1.18441e-07
-0.442341 -2.45225 -1.0719e-07
-0.0130349 -2.31898 -1.01365e-07
-0.48968199 -3.0299201 -1.32441e-07
-0.383798 -2.36642 -1.03439e-07
-0.56710202 -2.9567399 -1.29242e-07
0.113629 -2.2636001 -9.8944398e-08
-0.30145201 -2.2454901 -9.8152803e-08
-0.58460599 -2.1797099 -9.52774e-08
-0.23817401 -2.6233101 -1.14667e-07
-0.38187501 -2.8934801 -1.26477e-07
-0.0130349 -2.31898 -1.01365e-07
-0.26155201 -2.3757401 -1.03846e-07
0.147984 -2.30515 -1.0076e-07
-0.661057 -2.6173 -1.14405e-07
-0.338137 -2.9277999 -1.27977e-07
-0.63545501 -2.5380199 -1.1094e-07
-0.62707901 -2.56376 -1.12065e-07
-0.49636599 -2.8438399 -1.2430699e-07
-0.539249 -2.74243 -1.19874e-07
-0.21555801 -2.75876 0.0134136
-0.67451799 -3.0620999 -1.33847e-07
-0.59855598 -3.06967 -1.3417799e-07
-0.65578198 -2.4730301 -1.08099e-07
-0.608033 -2.58113 -1.12824e-07
-0.265228 -1.27324 -5.56545e-08
-0.35295099 -1.43488 -6.2719899e-08
-0.43998799 -1.35124 -5.9064099e-08
-0.35876 -1.40609 -6.1461598e-08
-0.028729999 -1.9469 -8.5101e-08
-0.280774 -1.7026 -7.4422303e-08
0.172565 -1.94133 -8.4857398e-08
-0.25344899 -1.93338 -8.4510098e-08
-0.0049805599 -1.99772 -8.7322498e-08
-0.52546197 -1.14034 0.0072511998
-0.36827499 -1.55233 -6.7854103e-08
0.102755 -1.25511 -5.4862301e-08
-0.409877 -1.38985 -6.0751603e-08
-0.57530302 -1.23633 -5.4041202e-08
-0.26054499 -1.47848 -6.4626001e-08
-0.44331899 -1.19221 -5.21127e-08
-0.495965 -1.32469 -5.79033e-08
-0.56677002 -2.0232301 -8.8437197e-08
-0.057068899 -1.7048399 -7.4520401e-08
-0.53618097 -2.1267099 -9.2960597e-08
-0.00907344 -1.3296 -5.8118001e-08
-0.283353 -1.27894 -5.5903602e-08
-0.463891 -1.15644 -5.05493e-08
0.099936299 -1.68699 -7.3740097e-08
-0.0610235 -2.0304899 0.0030915099
-0.67662102 -1.52667 -6.6732198e-08
-0.26300099 -1.58901 -6.9457101e-08
-0.0041146302 -1.65448 -7.2318898e-08
-0.63172299 -1.26157 -5.5144699e-08
0.054052498 -1.8814501 -8.2240199e-08
-0.60926199 -1.6667399 -7.2854696e-08
-0.52546197 -1.14034 0.0072511998
0.0168937 -1.29934 -5.6795599e-08
0.225747 -1.76026 -7.6942698e-08
-0.21555801 -1.29053 0.0068708402
-0.26660401 -1.44602 -6.3207203e-08
0.029267199 -1.22328 -5.3470799e-08
0.089935496 -1.31505 -5.74823e-08
0.120236 -1.91909 -8.3885197e-08
0.191386 -1.66011 -7.25652e-08
-0.66928899 -1.37296 -6.0013299e-08
0.0157583 -1.84015 -8.0434603e-08
-0.47864699 -1.21789 -5.32354e-08
0.108768 -1.48711 -6.5003e-08
0.16270299 -1.1912 -5.2068501e-08
-0.69892001 -1.47377 -6.442e-08
-0.69952399 -1.22333 -5.3473102e-08
0.172565 -1.94133 -8.4857398e-08
0.146357 -1.43232 -6.2608201e-08
-0.21555801 -1.49376 0.0045676301
0.088320099 -1.93924 -8.47661e-08
-0.47015899 -1.15263 -5.03824e-08
-0.52552599 -1.21261 0.0062279101
-0.55865097 -1.70249 -7.4417699e-08
0.029313499 -1.1533999 -5.0416102e-08
-0.541888 -1.19664 -5.2306401e-08
-0.55730498 -1.31608 -5.7527e-08
-0.0610235 -1.47894 0.00067448599
-0.00907344 -1.3296 -5.8118001e-08
-0.413039 -2.0619299 -9.01289e-08
0.0022662301 -1.70916 -7.4709298e-08
-0.41774401 -1.71143 -7.4808298e-08
-0.704431 -1.51838 -6.6369999e-08
-0.65759498 -1.42709 -6.2379399e-08
-0.44047901 -1.2111501 -5.2940401e-08
-0.043436401 -2.0153601 -8.8093401e-08
-0.39346799 -1.9708 -8.6145697e-08
0.21089999 -1.63705 -7.1556997e-08
-0.331469 -1.18788 -5.1923401e-08
0.19757999 -1.73043 -7.5638603e-08
-0.3682 -1.92343 -8.4075097e-08
-0.0159762 -2.1185701 -9.26048e-08
-0.382083 -1.87792 -8.2085599e-08
-0.21555801 -1.89824 0.00201421
0.076306298 -1.8187799 -7.9500701e-08
-0.64174002 -1.93624 -8.4635197e-08
0.0538892 -1.2529 -5.47656e-08
-0.025249399 -1.4062901 -6.1470203e-08
0.21727 -1.4437799 -6.3109098e-08
-0.41103399 -1.53486 -6.7090099e-08
-0.480809 -1.9415801 -8.4868397e-08
-0.70199001 -1.22016 -5.3334301e-08
0.072649702 -1.35052 -5.90328e-08
-0.51206797 -2.03582 -8.8987498e-08
0.130374 -1.64952 -7.2102097e-08
-0.68837202 -1.6368099 -7.1546602e-08
-0.022714101 -1.227 -5.36333e-08
-0.613599 -1.2903399 -5.64022e-08
0.077828899 -1.60601 -7.0200301e-08
-0.0049805599 -1.99772 -8.7322498e-08
-0.54836798 -2.1138899 -9.2400199e-08
0.090295002 -1.6171499 -7.06873e-08
-0.67395198 -1.2639 -5.5246499e-08
0.18266501 -1.79238 -7.8346503e-08
-0.41830099 -1.18546 -5.18177e-08
-0.47015899 -1.15263 -5.03824e-08
-0.38211599 -2.1279199 -9.3013497e-08
-0.020140801 -2.0106201 -8.7886299e-08
-0.26437199 -1.35216 -5.9104199e-08
-0.38008201 -1.64472 -7.1892501e-08
-0.373292 -1.66763 -7.2893798e-08
-0.308101 -1.16529 -5.0935999e-08
-0.65574002 -1.3195699 0.0081770001
-0.403918 -2.0158999 -8.8116899e-08
-0.0610235 -1.33356 0.0055081798
0.241925 -1.71545 -7.49842e-08
0.067315601 -2.1135001 -9.2383303e-08
-0.223709 -1.1636 -5.0862301e-08
-0.35302901 -1.52002 -6.6441501e-08
-0.0610235 -1.47894 0.00067448599
0.0056307898 -1.5771101 -6.8936998e-08
-0.56799501 -1.3946199 -6.0960097e-08
-0.68086702 -1.67713 -7.3309103e-08
-0.59236902 -2.01302 -8.7991303e-08
-0.41911101 -2.10677 -9.2088897e-08
-0.36020899 -1.48018 -6.4700302e-08
-0.25181699 -1.63553 -7.1490703e-08
0.201977 -1.80273 -7.8798998e-08
-0.24436501 -1.81214 -7.9210501e-08
-0.326352 -2.1029 -9.1920001e-08
0.22233699 -1.55656 -6.8038801e-08
-0.030991299 -1.65239 -7.2227699e-08
0.231427 -1.63232 -7.13503e-08
-0.46472201 -1.68256 -7.3546403e-08
0.136555 -1.81576 -7.9368903e-08
0.170239 -1.30751 -5.7152398e-08
-0.62606698 -1.63125 -7.1303802e-08
-0.040371399 -2.03936 -8.9142603e-08
0.224657 -1.45731 -6.3700497e-08
-0.39491999 -1.49606 -6.5394097e-08
-0.0089296103 -1.15987 -5.0699001e-08
0.034314699 -1.25218 -5.4733899e-08
0.27609399 -1.1651599 -5.09303e-08
-0.236131 -1.88043 -8.2195399e-08
0.114302 -1.3581899 -5.9367999e-08
-0.238198 -1.84346 -8.0579703e-08
-0.578049 -1.1889 -5.1967898e-08
-0.020832499 -1.75339 -7.6642301e-08
0.27109301 -1.47267 -6.4372003e-08
-0.33069399 -1.28759 -5.6281799e-08
-0.64275402 -1.80746 -7.90059e-08
-0.236765 -1.35738 -5.93324e-08
-0.036585499 -1.54123 -6.7368603e-08
-0.58157098 -1.7683901 -7.7298203e-08
0.28497601 -1.1835099 -5.1732499e-08
0.198295 -2.13077 -9.3138297e-08
-0.367888 -1.79614 -7.8511e-08
-0.58587402 -1.40374 -6.1358797e-08
0.061196499 -1.25099 -5.4682101e-08
-0.047449701 -2.09407 -9.1533899e-08
0.15059 -1.84377 -8.0592798e-08
0.25264001 -1.45393 -6.3552797e-08
-0.55507302 -2.0344801 -8.8929198e-08
-0.46474099 -1.68428 -7.3621599e-08
-0.032326501 -1.80428 -7.8866996e-08
-0.68298203 -2.1066101 -9.2082097e-08
0.114869 -1.6493599 -7.2094998e-08
-0.63446099 -1.81015 -7.9123303e-08
0.122125 -1.4630001 -6.3949102e-08
-0.60975099 -1.37501 -6.0103098e-08
-0.70261902 -1.21603 -5.3153801e-08
0.068102799 -1.6418101 -7.1765001e-08
0.00242001 -1.46428 -6.4005299e-08
0.0023616001 -1.37248 -5.9992303e-08
-0.47888699 -1.23647 -5.4047401e-08
0.055006102 -1.56706 -6.8497599e-08
-0.70208001 -1.94083 -8.4835698e-08
0.265607 -1.75591 -7.6752798e-08
-0.45764899 -2.06568 -9.02929e-08
-0.70929098 -1.2127301 0.0048893299
-0.058525801 -1.24191 -5.4285099e-08
-0.57809198 -1.1685899 -5.1080399e-08
-0.32487899 -2.10254 -9.1904298e-08
-0.363552 -1.39013 -6.0764101e-08
-0.33413401 -1.51232 -6.6105102e-08
-0.0162801 -1.83592 -8.0249897e-08
-0.68419498 -1.71597 -7.5006803e-08
-0.34407601 -1.58293 -6.9191501e-08
-0.69527102 -2.0652101 -9.02726e-08
-0.56228203 -1.16257 -5.0817299e-08
-0.68576801 -1.49491 -6.5343897e-08
-0.29961601 -1.91049 -8.35092e-08
-0.28285199 -1.9192801 -8.3893497e-08
-0.0343633 -1.57292 -6.87537e-08
-0.50855398 -1.3901401 -6.07644e-08
-0.24800301 -1.61002 -7.03754e-08
-0.235109 -1.3717999 -5.9963e-08
-0.34214601 -1.79758 -7.8573798e-08
0.16817001 -2.0129499 -8.7988298e-08
-0.44346699 -1.33288 -5.8261602e-08
-0.69527102 -2.0652101 -9.02726e-08
-0.393511 -1.74279 -7.61789e-08
0.109158 -2.1309099 -9.3144401e-08
-0.62721801 -1.3256 -5.79433e-08
0.0648527 -1.99582 -8.7239499e-08
-0.052871201 -1.67048 -7.3018199e-08
-0.55413699 -1.70964 -7.4729897e-08
-0.52795899 -1.2720701 -5.5603699e-08
-0.50519103 -2.0680399 -9.0396e-08
-0.354388 -1.35734 -5.93305e-08
-0.54922199 -1.95885 -8.5623498e-08
0.26396301 -1.61428 -7.0561903e-08
-0.27803701 -1.73579 -7.5872997e-08
-0.66276401 -1.88805 -8.2528501e-08
0.041120201 -1.39281 -6.0881e-08
-0.41550699 -1.66694 -7.2863699e-08
-0.48322099 -1.15064 -5.02957e-08
-0.050579902 -1.16998 -5.11412e-08
0.034314699 -1.25218 -5.4733899e-08
0.18410499 -1.5450701 -6.7536398e-08
-0.536515 -1.385 -6.0540003e-08
-0.218355 -1.6588 -7.2507603e-08
-0.44346699 -1.33288 -5.8261602e-08
-0.56095898 -1.88228 -8.2276301e-08
0.101872 -1.28952 -5.6366002e-08
-0.47036099 -1.93268 -8.4479403e-08
0.253023 -1.6224 -7.0916599e-08
0.115595 -1.7513601 -7.6553697e-08
0.23723599 -1.81709 -7.9426698e-08
-0.0592594 -1.65675 -7.2418203e-08
-0.0610235 -1.88271 0.0079336204
-0.66781098 -1.74707 -7.6366298e-08
-0.38647601 -1.7358299 -7.58751e-08
-0.23319601 -1.15792 -5.06137e-08
-0.0054872599 -1.1570899 -5.0577501e-08
0.20819101 -1.64116 -7.17368e-08
-0.30366299 -2.0166399 -8.8149299e-08
0.16912401 -1.82038 -7.9570697e-08
-0.038422599 -1.29513 -5.6611501e-08
-0.020704901 -1.8051701 -7.8905998e-08
-0.26848799 -1.37349 -6.0036697e-08
-0.268938 -1.14099 -4.9873801e-08
-0.46222201 -2.0838799 -9.1088502e-08
-0.275765 -1.3342 -5.8319198e-08
-0.46472201 -1.68256 -7.3546403e-08
0.17864799 -1.46196 -6.3903897e-08
0.036901001 -1.40398 -6.1369597e-08
-0.56859398 -1.42347 -6.2221403e-08
0.108714 -1.89206 -8.2703998e-08
-0.52530003 -1.19225 0.0098448396
-0.036782399 -1.7952501 -7.8472198e-08
-0.71156198 -1.4275399 -6.2399103e-08
0.26510701 -1.63209 -7.1340402e-08
-0.531739 -1.1368099 -4.9691302e-08
-0.55651098 -2.12904 -9.3062503e-08
0.045107201 -1.5419101 -6.7398503e-08
0.0287909 -1.17704 -5.14497e-08
-0.21555801 -1.18933 0.00140445
-0.69527102 -2.0652101 -9.02726e-08
-0.0610235 -1.56205 0.0013454
-0.54130697 -2.11081 -9.2265502e-08
0.14548101 -1.61695 -7.0678603e-08
0.061778098 -1.36673 -5.9741303e-08
0.23594899 -2.0608799 -9.0083198e-08
-0.245406 -1.7345999 -7.5821099e-08
0.035874799 -1.5059299 -6.5825802e-08
-0.020832499 -1.75339 -7.6642301e-08
-0.27783999 -1.13741 -4.97174e-08
0.095875002 -1.29125 -5.6441699e-08
0.0433608 -1.30546 -5.7062898e-08
0.139948 -1.25635 -5.4916502e-08
-0.57021999 -1.42156 -6.2137701e-08
0.112435 -2.0933001 -9.1500397e-08
-0.011658 -2.0110099 -8.7903103e-08
-0.70030999 -1.30391 -5.6995201e-08
-0.52379602 -1.3468601 -5.8872502e-08
-0.22453 -1.87604 -8.2003403e-08
-0.33069399 -1.28759 -5.6281799e-08
-0.59687799 -1.3489799 -5.8965298e-08
0.020950999 -2.02754 -8.8625598e-08
0.101439 -1.42512 -6.2293601e-08
-0.67742801 -2.0413699 -8.9230198e-08
-0.35295099 -1.43488 -6.2719899e-08
-0.396393 -1.86516 -8.1528e-08
-0.58021599 -1.34113 -5.8622302e-08
-0.56292099 -1.29969 -5.6810801e-08
-0.56677002 -2.0232301 -8.8437197e-08
-0.69068301 -2.0612199 -9.0097899e-08
-0.63925302 -1.68696 -7.3738697e-08
-0.62832898 -1.89362 -8.2772203e-08
-0.52546197 -1.14034 0.0072511998
0.069993898 -2.1319799 -9.3190799e-08
-0.525832 -1.28074 0.00133418
0.24068999 -1.52786 -6.6784501e-08
-0.344868 -1.36272 -5.95657e-08
-0.57418102 -1.3416899 -5.8646599e-08
-0.222133 -1.25326 -5.4781001e-08
0.26628301 -1.48616 -6.4961803e-08
0.097738899 -1.3968101 -6.10558e-08
-0.52355999 -1.70559 -7.4553e-08
-0.451464 -1.90042 -8.3069303e-08
-0.69146103 -1.52818 -6.67983e-08
-0.227587 -1.23181 -5.3843799e-08
0.072560199 -1.90514 -8.32758e-08
-0.044356499 -1.4936 -6.5286699e-08
0.0934956 -1.45047 -6.3401501e-08
0.23527899 -1.1961401 -5.2284499e-08
0.127241 -1.60357 -7.0093499e-08
-0.21555801 -1.91971 0.00547793
0.0204909 -1.98321 -8.6687898e-08
-0.61534202 -1.41615 -6.1901297e-08
0.117123 -1.59198 -6.9587202e-08
-0.55511701 -1.1806999 -5.16097e-08
0.098513402 -1.6134501 -7.0525701e-08
-0.34083301 -1.59628 -6.9774899e-08
-0.55865097 -1.70249 -7.4417699e-08
-0.55778998 -1.18681 -5.18768e-08
-0.027190801 -2.0470901 -8.9480402e-08
-0.60988498 -1.20592 -5.2712199e-08
-0.63262999 -1.83525 -8.0220502e-08
-0.0084931897 -1.84724 -8.0744698e-08
0.158903 -1.60438 -7.0128799e-08
0.175118 -1.81547 -7.93559e-08
0.00912249 -1.59514 -6.9725203e-08
0.054052498 -1.8814501 -8.2240199e-08
-0.28668201 -1.64272 -7.1804998e-08
-0.0220671 -1.32356 -5.7854201e-08
0.224657 -1.45731 -6.3700497e-08
0.151309 -1.3642499 -5.9632697e-08
-0.315588 -1.57319 -6.87658e-08
-0.525814 -1.23334 0.00161695
0.0028935701 -1.90676 -8.3346301e-08
-0.376831 -1.94762 -8.5132299e-08
-0.63363302 -1.7582901 -7.6856502e-08
-0.40261501 -1.66311 -7.2696402e-08
-0.31977999 -2.03848 -8.9104198e-08
0.069993898 -2.1319799 -9.3190799e-08
-0.54968899 -1.2935899 -5.6544e-08
-0.37485099 -1.18761 -5.1911702e-08
0.14868701 -1.81745 -7.94426e-08
0.256919 -2.1133399 -9.2376297e-08
-0.65574002 -1.3195699 0.0081770001
-0.0251924 -1.55408 -6.79305e-08
-0.40714899 -2.0080199 -8.7772499e-08
-0.21555801 -1.25869 0.000172648
0.25208399 -1.41337 -6.1779701e-08
0.20193601 -1.1835999 -5.1736301e-08
-0.43998799 -1.35124 -5.9064099e-08
-0.43611401 -1.94733 -8.5119702e-08
-0.66318601 -2.0887899 -9.1303299e-08
-0.66053498 -1.31934 -5.7669698e-08
0.085858598 -1.54188 -6.7397202e-08
-0.598261 -1.26952 -5.5491999e-08
-0.0552564 -1.9074 -8.3374402e-08
-0.62832898 -1.89362 -8.2772203e-08
-0.0610235 -1.13937 0.0056374101
0.27554101 -1.37919 -6.0285998e-08
-0.70646298 -1.94839 -8.51661e-08
0.119172 -1.19121 -5.2069201e-08
-0.37990701 -2.01671 -8.8152497e-08
0.0093253301 -1.7885799 -7.8180499e-08
-0.51319999 -2.0976901 -9.16923e-08
-0.0431679 -1.56582 -6.8443697e-08
-0.525832 -1.28074 0.00133418
-0.418147 -1.3114001 -5.7322399e-08
-0.38780901 -2.0239501 -8.8468802e-08
-0.28051499 -1.42425 -6.2255502e-08
-0.64063799 -1.61159 -7.0444401e-08
-0.376443 -1.16283 -5.0828501e-08
-0.647241 -1.21856 -5.3264301e-08
0.119369 -1.88267 -8.2293496e-08
-0.27681601 -1.48192 -6.4776103e-08
-0.038362902 -1.48125 -6.4746899e-08
0.164437 -1.3166699 -5.7553201e-08
0.074741498 -1.79659 -7.8530803e-08
-0.41774401 -1.71143 -7.4808298e-08
0.0728819 -1.78231 -7.79064e-08
0.080277003 -1.39253 -6.0868999e-08
-0.0552672 -1.8547601 -8.1073203e-08
0.12498 -1.6258399 -7.10669e-08
-0.50311798 -1.1460201 -5.00937e-08
-0.53844601 -1.93028 -8.43743e-08
0.18686301 -1.8196 -7.9536697e-08
-0.0297816 -1.1516 -5.03378e-08
-0.61409599 -1.32719 -5.8012802e-08
0.25460601 -2.12534 -9.2900898e-08
-0.0150207 -1.85247 -8.0973301e-08
-0.56863803 -1.31888 -5.76497e-08
0.186961 -1.55215 -6.7846102e-08
-0.62832898 -1.89362 -8.2772203e-08
-0.65867698 -1.41539 -6.1868001e-08
-0.61697602 -1.85914 -8.1264901e-08
-0.018025 -1.69266 -7.3988097e-08
0.27386299 -2.07952 -9.08978e-08
-0.55511701 -1.1806999 -5.16097e-08
-0.38114601 -1.69093 -7.3911998e-08
-0.367888 -1.79614 -7.8511e-08
-0.63010901 -1.71822 -7.5105e-08
-0.37990701 -2.01671 -8.8152497e-08
-0.54461002 -1.70899 -7.4701497e-08
-0.481848 -1.21973 -5.33155e-08
-0.663302 -1.9127899 -8.3609997e-08
0.139948 -1.25635 -5.4916502e-08
-0.38359001 -1.50054 -6.55901e-08
0.26729101 -1.3273 -5.8017701e-08
-0.58157098 -1.7683901 -7.7298203e-08
0.16016801 -1.87598 -8.2000803e-08
-0.54643202 -1.1820101 -5.1666699e-08
-0.41098899 -1.64948 -7.2100399e-08
-0.403575 -1.36176 -5.9523899e-08
0.20378 -1.38781 -6.0662501e-08
0.0138586 -1.61048 -7.03956e-08
-0.567137 -1.28601 -5.6212698e-08
0.18102901 -1.18241 -5.16843e-08
-0.63399899 -1.3865499 -6.0607498e-08
0.038479701 -1.2908601 -5.6424899e-08
0.213047 -2.1073 -9.2112401e-08
-0.22781099 -1.3579201 -5.93562e-08
0.183229 -1.8485301 -8.08012e-08
-0.55825001 -1.6945601 -7.4071103e-08
-0.62606698 -1.63125 -7.1303802e-08
-0.456276 -1.32154 -5.77657e-08
-0.0042636399 -1.96515 -8.5898598e-08
-0.44209301 -1.70693 -7.4611698e-08
-0.48267201 -1.17261 -5.1255999e-08
-0.55380499 -1.27834 -5.58774e-08
-0.39559299 -1.98313 -8.66847e-08
-0.24800301 -1.61002 -7.03754e-08
-0.236131 -1.88043 -8.2195399e-08
0.108714 -1.89206 -8.2703998e-08
-0.487515 -2.08971 -9.1343402e-08
0.27744499 -1.27558 -5.5756999e-08
0.099740401 -1.54063 -6.7342498e-08
-0.33940199 -1.68603 -7.3697898e-08
-0.613087 -1.90365 -8.3210402e-08
-0.301658 -1.50394 -6.5738497e-08
-0.360201 -1.77107 -7.7415102e-08
-0.48082799 -2.0639701 -9.0218101e-08
-0.65867698 -1.41539 -6.1868001e-08
-0.27875 -1.91597 -8.3748802e-08
0.16586401 -1.75325 -7.6636297e-08
-0.34564599 -1.27045 -5.5532599e-08
-0.018430499 -1.88146 -8.2240597e-08
0.107111 -1.67693 -7.3300299e-08
-0.44813401 -1.91169 -8.3562e-08
-0.0191742 -1.51621 -6.6275099e-08
0.169626 -1.24911 -5.4600001e-08
-0.462565 -1.35526 -5.9239699e-08
-0.373586 -1.19156 -5.20842e-08
-0.0220508 -1.45146 -6.3444901e-08
-0.55010599 -1.68595 -7.3694402e-08
0.029313499 -1.1533999 -5.0416102e-08
-0.41277 -1.2460001 -5.4464099e-08
-0.58081698 -1.37514 -6.0108697e-08
-0.709629 -1.2594399 0.0103018
-0.0610235 -1.69801 0.0071306201
0.234962 -1.6705101 -7.3019599e-08
-0.280774 -1.7026 -7.4422303e-08
0.27744499 -1.27558 -5.5756999e-08
-0.46668899 -1.64914 -7.2085697e-08
-0.44935501 -2.0815799 -9.0987797e-08
-0.340312 -1.83438 -8.0182502e-08
-0.56340098 -0.98504603 -4.3057302e-08
0.022190601 -0.43786001 -1.91393e-08
-0.49986801 -1.0241899 -4.47682e-08
-0.64277798 -0.24206901 -1.05811e-08
-0.256412 -0.52684498 -2.30289e-08
0.24467801 -1.0498 -4.5887699e-08
-0.329577 -0.222167 -9.7111403e-09
-0.604653 -0.68146098 -2.9787399e-08
-0.357272 -0.17039999 -7.4483499e-09
-0.32687399 -0.56768298 -2.4814e-08
-0.375853 -0.35547 -1.55379e-08
-0.51620698 -0.60780901 -2.6567999e-08
-0.131101 -0.471764 -2.06213e-08
-0.226353 -0.47259799 -2.06577e-08
-0.49503201 -0.476302 -2.08196e-08
-0.0089070201 -0.34282801 -1.49853e-08
-0.072445497 -0.25404599 -1.11046e-08
-0.63524598 -0.27410099 -1.19812e-08
-0.457735 -0.72544301 -3.1709799e-08
-0.112695 -0.15577801 -6.8092301e-09
-0.66321498 -0.168258 -7.3547199e-09
-0.022091901 -0.58506799 -2.55739e-08
0.105562 -0.908795 -3.9724299e-08
-0.624874 -0.44853699 -1.9606e-08
-0.396503 -1.01044 -4.4167301e-08
-0.70881498 -1.0847 -4.7413501e-08
-0.114545 -0.29991299 -1.31095e-08
-0.078511402 -0.64582098 -2.8229501e-08
-0.15230399 -0.34023699 -1.48721e-08
0.237799 -0.932998 -4.07823e-08
-0.235659 -0.98120701 -4.28895e-08
-0.64639503 -0.72446001 -3.16669e-08
0.25176799 -1.1318099 -4.94727e-08
0.22054601 -0.48940501 -2.1392401e-08
-0.58239001 -0.77039999 -3.3675001e-08
-0.32687399 -0.56768298 -2.4814e-08
0.0121641 -0.97891903 -4.2789502e-08
0.026021101 -0.23252399 -1.01639e-08
0.0165473 -0.701554 -3.06656e-08
0.19595499 -0.36713901 -1.6048e-08
0.18922301 -0.87210298 -3.8120501e-08
-0.60894001 -0.38411099 -1.6789899e-08
-0.052452199 -0.23275401 -1.01739e-08
-0.24694701 -0.74926603 -3.2751199e-08
0.076047398 -0.44872701 -1.96143e-08
0.098264799 -0.15748601 -6.8838801e-09
0.18953601 -0.54941398 -2.4015501e-08
-0.68951797 -0.243917 -1.06619e-08
0.216546 -0.62795699 -2.74486e-08
-0.145722 -0.34555501 -1.51046e-08
-0.410368 -0.27727699 -1.21201e-08
-0.56871903 -1.01761 -4.4480899e-08
0.248557 -0.80986601 -3.5400099e-08
-0.055542398 -0.172497 -7.5399997e-09
-0.31607899 -0.276014 -1.20648e-08
0.093316101 -0.15076999 -6.5903101e-09
-0.0306991 -0.317779 -1.38904e-08
0.25024101 -0.51396197 -2.24658e-08
-0.58569503 -0.52832001 -2.3093399e-08
-0.37083 -0.499356 -2.1827301e-08
0.217838 -0.51428699 -2.248e-08
0.209498 -0.44688001 -1.95336e-08
0.129986 -0.36988801 -1.6168199e-08
-0.60756898 -0.57266498 -2.5031801e-08
-0.632801 -0.57718801 -2.52295e-08
-0.093545102 -0.45754501 -1.99997e-08
-0.0381088 -0.47880501 -2.0929001e-08
-0.36895701 -0.65239 -2.8516601e-08
0.130017 -0.170056 -7.4333002e-09
-0.47065201 -0.34631601 -1.51378e-08
0.23494001 -0.65927303 -2.8817499e-08
0.0297204 -0.42460901 -1.8560099e-08
-0.232374 -0.32038 -1.40041e-08
-0.53029901 -0.54277802 -2.37254e-08
0.0362738 -0.193204 -8.4451299e-09
-0.690247 -0.67973 -2.97117e-08
-0.51756501 -0.95507902 -4.1747501e-08
-0.48682699 -0.242488 -1.05994e-08
-0.321192 -0.24958 -1.09094e-08
