# .PCD v0.7 - Point Cloud Data file format
VERSION 0.7
FIELDS x y z
SIZE 4 4 4
TYPE F F F
COUNT 1 1 1
WIDTH 266
HEIGHT 1
VIEWPOINT 0 0 0 1 0 0 0
POINTS 266
DATA ascii
-1.47106 -0.87827301 0.31780401
-1.30672 -0.76476997 0.30353001
-1.4566 -0.88434899 0.303983
-1.47076 -0.87827301 0.27816099
-1.5099699 -0.87217301 0.29462299
1.4664299 -0.79330498 0.31667501
1.52731 -0.65851098 0.381556
1.53895 -0.65851098 0.38509199
1.41581 -0.65851098 0.445728
1.7444201 -0.65851098 0.49604899
1.54647 -0.65851098 0.19340099
1.68717 -0.65851098 0.18286701
1.67097 -0.79330498 0.252242
1.39685 -0.79330498 0.30335799
1.72229 -0.65851098 0.35413501
1.64051 -0.65851098 0.321704
1.61324 -0.79330498 0.284361
1.5204901 -0.65851098 0.232733
1.59349 -0.79330498 0.40501499
1.62085 -0.65851098 0.434084
1.65615 -0.79330498 0.32938501
1.4367 -0.79330498 0.26124799
1.5847501 -0.65851098 0.49254099
1.65633 -0.79330498 0.147497
1.54558 -0.65851098 0.302596
1.6621799 -0.79330498 0.44554999
1.65894 -0.65851098 0.208747
1.62151 -0.65851098 0.322496
1.32916 -0.79330498 0.24268
1.65361 -0.79330498 0.43553999
1.34896 -0.79330498 0.30895799
1.5748301 -0.79330498 0.39053199
1.68409 -0.79330498 0.25807101
1.6014301 -0.79330498 0.13571601
1.78084 -0.65851098 0.36972901
1.5454201 -0.79330498 0.32174
1.48426 -0.65851098 0.453814
1.88994 -0.65851098 0.422708
1.32737 -0.65851098 0.267297
1.35813 -0.79330498 0.163426
1.31498 -0.79330498 0.256982
1.76867 -0.65851098 0.170399
1.50014 -0.65851098 0.0978138
1.57801 -0.65851098 0.25596201
1.6502 -0.79330498 0.47031501
1.61136 -0.79330498 0.14724299
1.60822 -0.65851098 0.442105
1.46347 -0.79330498 0.138506
1.75037 -0.65851098 0.32339799
1.83631 -0.65851098 0.375025
1.71746 -0.65851098 0.35234201
1.58847 -0.79330498 0.41178101
1.41432 -0.79330498 0.39612001
1.53815 -0.65851098 0.42724001
1.60894 -0.79330498 0.46853399
1.33816 -0.79330498 0.188706
1.44136 -0.65851098 0.106623
1.4310499 -0.79330498 0.214389
1.7900701 -0.65851098 0.253737
1.4588799 -0.65851098 0.42981699
1.7889301 -0.65851098 0.35360301
1.6911401 -0.65851098 0.128581
1.6912301 -0.79330498 0.317467
1.29777 -0.79330498 0.27178001
1.5529799 -0.65851098 0.377267
1.57267 -0.79330498 0.296765
1.75919 -0.65851098 0.145752
1.6301 -0.79330498 0.240236
1.42435 -0.65851098 0.12614
1.7434601 -0.65851098 0.24563999
1.77582 -0.79330498 0.26337299
1.66406 -0.79330498 0.43729901
1.3277 -0.65851098 0.332789
1.92741 -0.65851098 0.414361
1.52463 -0.79330498 0.40632799
1.49872 -0.79330498 0.107634
1.44596 -0.65851098 0.226087
1.48983 -0.79330498 0.25680301
1.45032 -0.65851098 0.199147
1.58957 -0.65851098 0.275316
1.5215 -0.65851098 0.137705
1.34408 -0.65851098 0.240114
1.29396 -0.79330498 0.203394
1.87658 -0.65851098 0.38224199
1.58243 -0.79330498 0.24289501
1.79408 -0.65851098 0.27717501
1.4236701 -0.79330498 0.158384
1.53815 -0.65851098 0.42724001
1.34076 -0.79330498 0.35001799
1.65802 -0.79330498 0.32958201
1.52187 -0.79330498 0.22131599
1.31847 -0.79330498 0.325748
1.43462 -0.65851098 0.32327601
1.80125 -0.65851098 0.45121899
1.85715 -0.65851098 0.45216599
1.59852 -0.65851098 0.47394401
1.80597 -0.65851098 0.50059903
1.54589 -0.65851098 0.50185102
1.9051 -0.65851098 0.444718
1.71903 -0.65851098 0.17066599
1.64051 -0.65851098 0.321704
1.82161 -0.65851098 0.32672501
1.80311 -0.65851098 0.41949099
1.41465 -0.65851098 0.15399
1.4313101 -0.79330498 0.197007
1.4739 -0.79330498 0.27282199
1.6562999 -0.65851098 0.27389801
1.50429 -0.65851098 0.223664
1.4560601 -0.79330498 0.19746099
1.55878 -0.65851098 0.198925
1.36905 -0.65851098 0.247804
1.4106899 -0.65851098 0.324985
1.74324 -0.79330498 0.212805
1.36001 -0.79330498 0.30618
1.65505 -0.65851098 0.22682901
1.4220001 -0.79330498 0.25549299
1.5034699 -0.79330498 0.28555101
1.61806 -0.65851098 0.220266
1.41257 -0.65851098 0.308034
1.83613 -0.65851098 0.28363401
1.76542 -0.65851098 0.17654499
1.8175499 -0.65851098 0.23342299
1.56277 -0.79330498 0.253223
1.52405 -0.65851098 0.227001
1.59544 -0.65851098 0.16046201
1.40808 -0.79330498 0.16287801
1.48983 -0.79330498 0.25680301
1.41747 -0.65851098 0.32154301
1.34982 -0.79330498 0.239381
1.56507 -0.79330498 0.31766099
1.42864 -0.65851098 0.130815
1.59405 -0.79330498 0.20099699
1.75043 -0.79330498 0.278539
1.44434 -0.65851098 0.45114899
1.73226 -0.65851098 0.171416
1.6941299 -0.65851098 0.23752899
1.45593 -0.65851098 0.32966399
1.3804801 -0.65851098 0.398743
1.54765 -0.65851098 0.29146299
1.38555 -0.65851098 0.36836001
1.55291 -0.79330498 0.43839499
1.32481 -0.65851098 0.25396201
1.31695 -0.65851098 0.29522601
1.83936 -0.65851098 0.294103
1.32792 -0.79330498 0.32613099
1.54723 -0.79330498 0.40133101
1.5736901 -0.65851098 0.279443
1.44893 -0.79330498 0.33316299
1.5736901 -0.65851098 0.279443
1.40808 -0.79330498 0.16287801
1.6142 -0.65851098 0.365569
1.83153 -0.65851098 0.376077
1.5431499 -0.79330498 0.43447399
1.46401 -0.65851098 0.42088401
1.44498 -0.65851098 0.189505
1.45785 -0.79330498 0.22901399
1.5494 -0.79330498 0.121961
1.8175499 -0.65851098 0.23342299
1.44166 -0.65851098 0.30982
1.31013 -0.65851098 0.369939
1.74902 -0.65851098 0.50226998
1.4293801 -0.65851098 0.26235601
1.62115 -0.65851098 0.239709
1.73586 -0.65851098 0.40879601
1.81116 -0.65851098 0.26984701
1.30488 -0.65851098 0.31250599
1.55033 -0.79330498 0.264126
1.36905 -0.65851098 0.247804
1.82634 -0.65851098 0.296096
1.53895 -0.65851098 0.38509199
1.65802 -0.79330498 0.32958201
1.7786601 -0.65851098 0.151702
1.56863 -0.65851098 0.41694701
1.7072999 -0.65851098 0.22389799
1.53187 -0.79330498 0.37851101
1.32111 -0.79330498 0.351731
1.47716 -0.65851098 0.261253
1.61383 -0.79330498 0.35031801
1.48975 -0.79330498 0.197979
1.58171 -0.79330498 0.31184199
1.65838 -0.79330498 0.24403299
1.47188 -0.79330498 0.36645901
1.6981699 -0.65851098 0.30073699
1.4580801 -0.79330498 0.40037599
1.4329799 -0.65851098 0.237793
1.59405 -0.79330498 0.20099699
1.58824 -0.65851098 0.40505701
1.43477 -0.65851098 0.359359
1.73948 -0.65851098 0.38362801
1.6668 -0.79330498 0.188958
1.5114599 -0.79330498 0.18750601
1.35795 -0.79330498 0.249752
1.54637 -0.79330498 0.19016001
1.4258699 -0.79330498 0.25144199
1.42416 -0.65851098 0.154047
1.29071 -0.65851098 0.19306201
1.35282 -0.65851098 0.38785699
1.4557 -0.65851098 0.22066601
1.82359 -0.65851098 0.23908
1.39509 -0.65851098 0.151521
2.4228401 -0.65851098 0.21019199
2.3566201 -0.65851098 0.22933701
2.47 -0.79330498 0.250449
2.4946401 -0.79330498 0.272663
2.41537 -0.65851098 0.302614
2.3902099 -0.79330498 0.19193
2.5572901 -0.65851098 0.371014
2.41626 -0.65851098 0.27355701
2.56286 -0.65851098 0.34462699
2.33249 -0.65851098 0.28639701
2.38464 -0.79330498 0.293551
2.52952 -0.65851098 0.222776
2.4586201 -0.79330498 0.23752099
2.56286 -0.65851098 0.34462699
2.4389601 -0.65851098 0.155607
2.5208299 -0.79330498 0.333956
2.4040401 -0.65851098 0.155258
2.45785 -0.79330498 0.29284799
2.34006 -0.79330498 0.28849301
2.3569801 -0.65851098 0.284924
2.4975801 -0.65851098 0.30411401
2.52952 -0.65851098 0.222776
2.46071 -0.65851098 0.28817901
2.36689 -0.79330498 0.30407801
2.38324 -0.65851098 0.29610199
2.3523099 -0.79330498 0.30214101
2.4333601 -0.65851098 0.27514401
2.41626 -0.65851098 0.27355701
2.41293 -0.79330498 0.213387
2.3803899 -0.79330498 0.23540799
2.36695 -0.65851098 0.334903
2.4742999 -0.65851098 0.38304499
2.53532 -0.65851098 0.17738099
2.39342 -0.79330498 0.252478
2.34953 -0.79330498 0.272174
2.50249 -0.65851098 0.367982
2.46071 -0.65851098 0.28817901
2.4626701 -0.79330498 0.28726301
2.48242 -0.79330498 0.26905
2.4330101 -0.79330498 0.29761201
2.37587 -0.65851098 0.357651
2.3768499 -0.79330498 0.230279
2.38993 -0.79330498 0.19107801
4.2712498 -3.1122 2.1633799
4.16886 -3.1122 2.22562
4.2061601 -3.1122 2.1907599
4.2771702 -3.1122 2.4154899
4.26228 -3.1122 2.1709299
4.21666 -3.1122 2.20257
4.07935 -3.1122 2.2904401
4.16992 -3.1122 2.2200799
4.1543198 -3.1122 2.2237999
4.1543198 -3.1122 2.2237999
4.2725101 -3.1122 2.17974
4.2712498 -3.1122 2.1633799
4.28127 -3.1122 2.4161699
4.2159801 -3.1122 2.1917
4.0959702 -3.1122 2.24263
4.1824498 -3.1122 2.21964
4.16921 -3.1122 2.1661201
4.2177901 -3.1122 2.1489601
4.2061601 -3.1122 2.1907599
4.0768199 -3.1122 2.2686801
4.26789 -3.1122 2.27876
4.1131802 -3.1122 2.18329
4.1262498 -3.1122 2.26489
