# .PCD v0.7 - Point Cloud Data file format
VERSION 0.7
FIELDS x y z
SIZE 4 4 4
TYPE F F F
COUNT 1 1 1
WIDTH 1846
HEIGHT 1
VIEWPOINT 0 0 0 1 0 0 0
POINTS 1846
DATA ascii
1.1722 1.79544 2.15064
1.0374 1.05662 1.50305
1.0374 1.28137 0.37177199
1.1722 1.2108999 2.8907001
1.1722 1.67972 0.182979
1.0374 1.4608099 1.8244801
1.0374 1.84951 0.84041101
1.0374 1.46069 2.09852
1.1722 1.22127 1.55155
1.0374 1.4306999 1.66001
1.1722 1.35882 2.5640399
1.0374 1.25279 2.0137601
1.0374 1.3322999 2.17465
1.1722 1.10197 2.7125001
1.1722 1.37971 1.39572
1.1722 1.57266 2.62111
1.0374 1.79768 1.35905
1.0374 1.16761 1.9119999
1.1722 1.16131 0.98010403
1.0374 1.7119 0.30596399
1.0374 1.0741 1.15178
1.0374 1.32042 1.46989
1.1722 1.77134 2.4905901
1.1722 1.39908 0.69305497
1.0374 1.363 0.814731
1.0374 1.8340501 1.17682
1.0374 1.80905 2.5374601
1.0374 1.4202 0.357685
1.0374 1.1077 2.1196699
1.0374 0.93685901 2.78563
1.1722 1.51627 2.5950699
1.1722 0.90441102 2.1316099
1.1722 1.68966 0.905159
1.0374 1.37525 1.69912
1.1722 1.18759 1.60598
1.0374 0.95415801 1.22832
1.0374 1.32143 1.6231
1.1722 1.1674 0.94611901
1.1722 1.61297 0.88830698
1.0374 0.87156302 0.80851603
1.1722 1.79259 2.21681
1.0374 1.67357 2.8634801
1.0374 1.64106 0.93795502
1.1722 1.82539 0.42580399
1.0374 1.81442 2.5009501
1.1722 1.01653 1.34863
1.0374 0.985618 2.9528401
1.0374 1.48807 2.93607
1.0374 1.51416 2.97789
1.0374 1.04863 0.52222902
1.0374 0.95292699 2.9663601
1.0374 1.39926 2.85007
1.0374 1.28317 1.7064
1.0374 1.82502 0.50921899
1.1722 1.76721 0.187942
1.0374 1.73713 2.34358
1.1722 1.79193 0.59409899
1.1722 1.68444 0.34894401
1.0374 1.81573 2.8067701
1.0374 1.29347 0.66704601
1.0374 1.34038 2.14767
1.1722 1.81989 1.94154
1.1722 1.37626 2.1322701
1.0374 1.04863 0.52222902
1.0374 1.56192 1.5137399
1.1722 0.96605402 2.0341201
1.1722 1.49165 1.09214
1.0374 1.62612 2.1273701
1.0374 1.85261 1.1697
1.0374 1.80426 0.23134799
1.0374 1.44008 2.3050001
1.1722 1.07412 2.9872799
1.1722 1.01368 2.1700101
1.0374 1.32252 2.15605
1.0374 1.7340699 0.137749
1.0374 1.59841 2.6789601
1.0374 1.65367 1.0371
1.1722 1.27291 2.1754601
1.0374 1.33407 1.99106
1.0374 1.55676 1.0427001
1.0374 1.70069 1.3066601
1.1722 1.73081 0.17906401
1.0374 1.6468 0.60849702
1.1722 1.63688 2.7553799
1.0374 1.83753 0.75497502
1.1722 1.07266 0.561674
1.1722 1.75087 0.93115199
1.1722 1.66125 2.0462799
1.1722 1.69906 1.47811
1.1722 0.97778702 1.73281
1.1722 0.979334 2.4305301
1.0374 1.5942 1.03584
1.1722 1.81643 2.84343
1.1722 1.66078 1.09434
1.0374 0.93697101 1.0443701
1.1722 1.67478 2.6296
1.1722 1.38964 2.9530201
1.0374 1.60206 0.021654701
1.1722 1.2025599 2.2853799
1.1722 1.10236 0.113728
1.0374 1.17 0.092583403
1.0374 1.02908 0.88787198
1.1722 1.64264 2.36709
1.0374 1.27308 2.15575
1.0374 1.6606801 0.85032898
1.1722 1.17651 2.8290901
1.1722 0.998936 0.73509699
1.1722 1.05641 2.4444101
1.1722 1.1296 2.63939
1.1722 1.67037 1.58349
1.0374 1.02333 2.0646999
1.1722 1.46566 2.01475
1.0374 1.0334899 2.0506699
1.1722 0.92314303 2.11081
1.0374 1.58729 2.71665
1.0374 1.17869 0.88176203
1.0374 1.11604 2.39856
1.0374 1.15279 0.11496
1.1722 1.22954 1.34475
1.1722 1.57599 0.221773
1.1722 1.85742 0.79850501
1.0374 1.45687 0.313566
1.0374 1.33468 2.2850001
1.0374 1.74532 1.59156
1.1722 1.45714 0.35500801
1.1722 1.64653 0.313328
1.0374 1.23716 2.7317901
1.0374 1.03822 0.90631598
1.0374 1.2349401 2.31071
1.0374 1.76948 2.0808499
1.0374 1.38872 0.82936102
1.0374 1.05775 1.44005
1.0374 0.99730498 2.3589799
1.0374 1.8616 1.43383
1.1722 1.33096 1.83363
1.0374 0.98410302 2.3729
1.1722 1.44662 0.99254
1.1722 1.62108 2.1476099
1.1722 1.7312599 0.93894601
1.0374 1.39228 2.3573699
1.0374 1.56616 2.04544
1.0374 1.02774 1.44567
1.0374 1.11798 1.71547
1.1722 1.25902 1.9856499
1.1722 1.5640399 0.38752201
1.0374 1.12397 2.8807499
1.0374 1.8141 0.95951498
1.0374 1.0443 1.1612
1.0374 0.97179902 1.87907
1.0374 1.57263 2.9225299
1.1722 1.53356 0.36256099
1.0374 1.43218 1.94001
1.1722 0.91840202 1.35791
1.0374 1.2483701 1.63457
1.1722 1.58596 2.8505499
1.0374 1.60638 2.72508
1.0374 1.47953 1.9808
1.0374 1.38392 1.40378
1.0374 1.08303 2.1500001
1.0374 1.3030601 0.285611
1.1722 0.95325798 1.97495
1.0374 1.26153 0.31646699
1.1722 1.2890199 2.2184
1.0374 0.873896 1.2731301
1.1722 1.30699 0.17903499
1.1722 1.2819099 1.53139
1.1722 1.32488 0.63234401
1.0374 1.64703 1.75327
1.0374 1.07403 2.3053501
1.1722 1.13306 2.4542201
1.0374 1.32531 2.1802101
1.1722 0.92711002 2.18103
1.1722 1.76919 1.97041
1.0374 1.32152 2.0697
1.1722 1.16596 2.1496
1.0374 1.12427 1.10193
1.1722 1.41529 2.06794
1.1722 1.8477499 2.00491
1.0374 1.22923 2.2925401
1.0374 1.50406 2.5311799
1.1722 1.0731601 0.80183101
1.0374 0.93707103 2.6518199
1.1722 1.20196 2.1580601
1.0374 1.72734 0.99076098
1.0374 1.2599 1.03411
1.0374 1.83709 0.207421
1.0374 1.12444 2.7897999
1.0374 1.2112 2.0397201
1.0374 0.886962 2.2030101
1.0374 1.8037 1.32283
1.1722 1.31407 2.3561599
1.0374 1.31282 1.9466701
1.1722 1.58922 1.15872
1.1722 1.73677 0.51541102
1.1722 1.81822 2.00314
1.0374 0.997495 2.54462
1.1722 0.90377897 2.1182201
1.0374 1.8352 0.62951499
1.1722 1.85034 0.204349
1.1722 1.77512 0.95792699
1.1722 1.71403 1.4568501
1.1722 1.07178 2.33477
1.0374 1.50697 2.4781699
1.0374 1.4078799 1.7957
1.1722 1.56322 1.51732
1.0374 1.85489 1.05699
1.0374 1.53196 0.85461801
1.0374 0.98249298 2.67118
1.0374 1.811 0.61587203
1.0374 1.74694 0.76700997
1.1722 1.44302 1.23147
1.0374 1.62421 2.2554801
1.0374 0.88956499 0.91108501
1.0374 1.30885 0.152136
1.0374 1.61981 0.56385201
1.1722 1.81417 2.89433
1.1722 1.18246 1.04558
1.1722 1.5095 1.85611
1.1722 1.37834 0.74017501
1.0374 1.68505 2.8831699
1.0374 1.13067 2.9909599
1.0374 0.92516398 2.19297
1.1722 0.91708201 0.84110802
1.0374 1.84237 1.48395
1.0374 1.31345 1.7517
1.0374 1.73748 2.5241201
1.1722 0.87313402 1.91626
1.1722 1.14863 2.0869601
1.1722 1.36655 0.15044101
1.0374 1.22245 1.2420501
1.1722 1.62753 2.2637999
1.1722 1.19792 0.098627098
1.0374 1.22156 1.95917
1.0374 1.39814 0.74146903
1.1722 1.33455 2.7806799
1.0374 1.10112 2.45362
1.1722 1.7585 1.0147099
1.0374 1.4615099 1.89775
1.1722 1.29451 0.498092
1.0374 1.66923 0.23670401
1.1722 1.66958 2.83882
1.0374 1.05479 1.78716
1.1722 1.04699 2.99195
1.0374 1.3292 0.233959
1.0374 1.74141 1.71259
1.1722 1.7527601 0.39728701
1.0374 1.8453799 0.62217402
1.1722 0.93903899 2.7608399
1.1722 1.84477 2.91471
1.0374 1.45946 1.9069999
1.0374 1.68562 1.6446
1.0374 0.873339 0.99598598
1.0374 1.47561 2.05514
1.1722 0.96970499 0.835931
1.1722 1.3293101 1.6297801
1.1722 1.71666 0.30723801
1.1722 1.1296 2.63939
1.0374 0.87505698 1.04532
1.0374 1.1906101 1.75135
1.0374 1.45533 1.84333
1.0374 1.69897 2.8905699
1.0374 1.29681 1.41317
1.0374 1.28188 1.52774
1.1722 1.1859601 1.95006
1.0374 1.28628 0.10046
1.1722 1.31854 0.90143901
1.0374 1.8513 0.70773
1.1722 1.2457 2.1020401
1.0374 1.62805 2.1560199
1.1722 1.37591 1.40597
1.1722 1.2296 0.32174
1.1722 1.34058 0.131418
1.0374 1.4164701 0.047040202
1.0374 1.4564101 2.43524
1.1722 1.73136 2.5143099
1.1722 1.1429501 0.672373
1.0374 1.28104 1.47993
1.0374 0.92672998 1.9364901
1.1722 1.8354501 1.93083
1.0374 1.78833 0.22200701
1.1722 1.64508 2.2658401
1.0374 1.07625 0.982885
1.1722 1.8339 1.6979899
1.0374 1.1111 0.55130601
1.0374 1.41654 0.69977301
1.1722 1.06194 0.46188101
1.1722 1.16587 0.48007801
1.0374 1.44508 2.14189
1.0374 1.22395 2.4586899
1.1722 1.40128 0.72577202
1.0374 1.105 1.84752
1.0374 1.12552 2.3015699
1.0374 1.39568 2.3266201
1.0374 1.25314 0.32734099
1.0374 0.87293202 2.87152
1.0374 1.85922 2.4358799
1.0374 1.57365 0.126462
1.0374 1.33373 2.94015
1.1722 1.46639 2.4561999
1.0374 1.3594 1.03987
1.0374 1.70489 2.34642
1.1722 1.85813 2.4631801
1.0374 1.81581 0.69583797
1.1722 1.5102299 0.735663
1.1722 0.95236802 0.97909099
1.1722 1.16567 1.227
1.1722 0.977395 2.2911501
1.0374 1.78035 1.46523
1.1722 1.3800499 1.38878
1.0374 0.97166997 1.37213
1.1722 1.4547499 2.0158601
1.0374 1.58482 2.68911
1.1722 1.33661 1.50462
1.0374 1.84001 1.8526
1.0374 1.16432 2.38767
1.0374 1.2321399 2.98914
1.0374 1.62991 1.2566
1.0374 1.25251 2.2009499
1.1722 1.71741 1.08966
1.1722 1.66286 0.57787102
1.1722 1.3889101 2.63269
1.1722 1.61013 2.6406901
1.1722 1.5614001 0.644979
1.0374 1.4924999 1.6211801
1.1722 0.93142998 2.5053101
1.1722 1.6047601 0.393345
1.1722 1.65899 0.93550599
1.1722 0.97725999 3.0069499
1.0374 0.89559501 1.90361
1.1722 1.2048301 2.6216099
1.0374 1.32754 2.4401801
1.0374 1.49541 1.11947
1.0374 1.72153 0.311499
1.1722 1.20789 2.2195301
1.0374 0.88550901 0.48183501
1.1722 1.2961299 1.0015399
1.1722 1.31793 0.73665798
1.0374 1.42977 2.7642801
1.1722 1.2130001 1.8185
1.1722 1.47085 0.039955299
1.1722 1.22741 2.55269
1.0374 1.22974 1.30454
1.0374 1.86314 2.3364
1.0374 1.2699 2.5320699
1.1722 1.77162 2.779
1.1722 1.08188 0.68156499
1.0374 1.00394 2.99932
1.0374 0.88925898 0.139438
1.0374 0.99461901 1.58883
1.1722 1.7864 0.87036198
1.0374 1.56414 0.91893202
1.0374 0.92000699 1.49985
1.1722 1.38162 2.1718199
1.1722 1.6482 1.44424
1.0374 1.09358 1.6978101
1.0374 0.98287803 2.79017
1.1722 1.81382 2.1503699
1.1722 1.12716 0.64991599
1.0374 0.90366501 1.57151
1.1722 1.76729 0.95301598
1.1722 1.29398 0.45814201
1.1722 1.69416 2.2346699
1.0374 1.5615 1.70603
1.1722 1.8063 1.4441299
1.0374 1.07858 1.13007
1.0374 1.17909 1.09539
1.0374 1.28668 0.48281699
1.0374 0.97510999 1.55633
1.1722 1.6179301 1.77466
1.1722 1.1741101 2.1135099
1.0374 0.98593998 1.24129
1.0374 1.34468 0.264999
1.0374 1.61561 1.5822999
1.0374 1.01889 2.7900701
1.1722 1.71144 2.04181
1.0374 1.17136 2.40135
1.0374 0.90830398 1.8463
1.0374 1.0263799 2.1196799
1.0374 1.29083 2.1990399
1.1722 0.92795497 2.8484001
1.1722 1.38739 2.5021999
1.1722 1.74174 1.49678
1.0374 1.58377 0.84554499
1.1722 1.8628401 2.8848801
1.0374 1.705 2.78721
1.0374 0.92833602 1.29582
1.0374 1.47772 1.7086
1.1722 1.85121 1.36066
1.1722 1.29045 2.00036
1.1722 1.76729 2.0092001
1.0374 0.92852098 2.6075201
1.0374 1.82186 1.8655699
1.1722 1.72768 0.053387899
1.0374 0.93254697 1.6774
1.0374 1.33448 2.3549099
1.0374 0.93065298 0.42170501
1.0374 1.17277 0.0925088
1.1722 0.98653299 2.40154
1.1722 1.21314 2.38376
1.0374 1.50789 0.109182
1.1722 1.4773 1.12439
1.1722 1.47814 2.46451
1.1722 1.83007 1.2463
1.1722 1.50176 1.76173
1.1722 0.977395 2.2911501
1.0374 1.12578 1.4120899
1.1722 1.42395 2.43732
1.1722 1.06652 0.66180003
1.1722 1.6875401 2.8654699
1.0374 1.39256 1.49239
1.1722 1.58292 1.57551
1.0374 1.04168 2.9484401
1.0374 1.7280999 0.51286501
1.1722 1.09711 2.1512001
1.1722 1.21777 0.862984
1.1722 1.04216 2.46468
1.0374 1.6125799 1.9704601
1.1722 1.28883 0.82740802
1.0374 1.02832 0.165062
1.0374 0.97958398 1.8369
1.0374 1.32107 2.3334301
1.0374 1.57944 2.1584001
1.0374 1.09491 2.97418
1.0374 1.79265 0.255739
1.0374 1.5438 0.84769797
1.1722 1.63213 2.02139
1.1722 1.64753 2.2852399
1.0374 1.3476501 1.3751301
1.1722 0.952416 1.3384
1.0374 1.60097 2.73613
1.1722 1.1880701 2.1047499
1.1722 0.92660201 0.046833899
1.1722 1.5382 1.17839
1.0374 1.1161799 2.8803501
1.0374 1.26758 2.8471899
1.0374 1.73218 2.35571
1.1722 0.91570199 2.1759801
1.0374 1.27535 2.28936
1.1722 1.85461 2.4744501
1.1722 1.03201 1.7022099
1.1722 1.3675801 0.78779697
1.0374 1.73151 0.0643254
1.1722 1.40123 2.6229999
1.0374 1.61543 0.62850702
1.0374 1.74396 0.78173298
1.0374 0.86888897 0.32473999
1.0374 1.25872 2.31587
1.0374 1.77352 1.5841399
1.1722 1.40791 0.65781099
1.0374 1.69209 2.71716
1.1722 0.94968402 0.325064
1.0374 1.5004801 1.12995
1.1722 1.61847 0.67810398
1.1722 1.62883 0.60688603
1.0374 1.40447 1.89042
1.0374 1.02829 2.0537701
1.1722 0.98763102 2.1236999
1.0374 0.98321998 2.6946399
1.1722 1.09582 1.75562
1.1722 0.930381 0.81418598
1.0374 1.5708899 2.96434
1.0374 0.89081699 1.72742
1.0374 1.55954 2.52194
1.1722 1.58549 2.24717
1.1722 1.3155 2.8205299
1.0374 1.6626 1.56243
1.1722 1.53346 1.82414
1.1722 1.86761 1.57605
1.0374 1.62316 1.87202
1.0374 1.82186 1.8655699
1.0374 1.69049 2.3350799
1.0374 1.81045 0.52721298
1.0374 1.39987 1.16846
1.1722 0.97461402 2.4147401
1.0374 0.91115201 1.32187
1.0374 1.35721 1.26843
1.1722 1.29321 1.92038
1.1722 0.91637999 1.48286
1.0374 1.24533 1.97621
1.0374 1.63173 0.032051601
1.0374 1.60252 0.560072
1.1722 1.2367001 2.0086
1.0374 1.73166 1.49246
1.1722 1.5953799 2.45859
1.1722 1.54441 1.36233
1.0374 1.2027 1.21577
1.0374 1.07102 1.01706
1.1722 0.92595702 2.5799799
1.0374 1.03457 2.7663701
1.1722 1.01174 0.779212
1.0374 1.55927 0.049064599
1.0374 0.948681 0.426525
1.0374 1.29005 1.1483999
1.1722 1.2959501 1.76986
1.0374 1.26714 0.032073501
1.0374 1.6804399 1.53075
1.1722 1.32586 1.19595
1.1722 1.55295 2.47332
1.0374 1.30852 1.90886
1.1722 0.894274 2.9328799
1.1722 1.86382 0.28269199
1.0374 1.59355 0.83204001
1.0374 1.20702 2.63133
1.0374 1.51328 2.2590899
1.0374 1.4083101 1.95632
1.0374 1.37036 2.9699099
1.0374 1.02584 0.50575399
1.0374 1.0805 2.59004
1.1722 1.19522 0.67110598
1.0374 1.39939 0.81402999
1.1722 1.76192 0.51131099
1.0374 1.20766 1.6336499
1.1722 1.63483 2.74208
1.0374 1.68294 2.26035
1.1722 1.22238 0.356507
1.0374 1.5351599 2.06091
1.1722 1.8529 0.14549699
1.1722 1.19124 2.78319
1.0374 1.01948 2.5972199
1.1722 0.91404903 0.585033
1.1722 1.67442 1.94542
1.0374 0.86990398 1.63445
1.1722 1.81622 2.9365699
1.0374 1.10154 1.49133
1.0374 1.5026799 1.69415
1.1722 1.80837 1.06214
1.0374 1.72148 2.0613501
1.0374 1.37556 0.77376097
1.0374 1.55726 1.71922
1.1722 1.21889 0.033051699
1.1722 1.77697 0.275141
1.1722 1.6123199 1.7212
1.1722 1.17084 0.26311001
1.1722 0.89738899 1.5107599
1.0374 1.22834 0.048869401
1.0374 1.8545901 0.79930401
1.1722 1.24417 1.52511
1.0374 0.98711002 2.2151599
1.0374 0.91860598 1.0965199
1.1722 1.49986 2.0588901
1.0374 1.37652 2.74507
1.1722 1.4918 1.40136
1.0374 1.56269 0.663486
1.0374 1.73528 2.44401
1.1722 1.72847 2.0569401
1.0374 0.94545102 0.185939
1.0374 1.47831 0.341019
1.0374 1.50981 1.471
1.1722 1.37721 1.7305501
1.0374 1.81565 0.62820798
1.0374 1.36359 0.718171
1.0374 1.66942 2.6526599
1.1722 1.13267 2.5701699
1.0374 0.97010797 0.17989799
1.1722 1.24045 2.26547
1.1722 0.97167802 2.1398399
1.1722 1.7128299 1.55222
1.1722 1.10373 0.69325501
1.0374 1.27683 2.33393
1.0374 1.36105 2.24231
1.1722 1.7354701 1.35436
1.1722 1.50368 2.4697199
1.1722 1.53497 1.7239
1.0374 1.56611 0.74789
1.0374 1.034 0.16789401
1.0374 1.7582999 2.26949
1.0374 1.28553 2.0955999
1.0374 1.7625999 0.26523501
1.0374 1.00564 1.97913
1.1722 1.38666 2.1566
1.0374 1.043 1.21505
1.1722 1.82535 0.59172201
1.0374 0.88091499 1.76641
1.0374 1.67733 1.70758
1.0374 1.6749099 0.640724
1.0374 1.30479 2.31918
1.0374 1.0695601 0.54791898
1.1722 1.84863 0.57684201
1.0374 1.66838 0.97636902
1.0374 0.971681 2.75422
1.1722 1.35208 0.74895698
1.1722 1.69701 2.0702901
1.0374 1.65381 1.5980099
1.1722 1.0055701 0.030759601
1.0374 1.46526 1.99289
1.0374 1.22682 1.08728
1.0374 1.63641 0.75940299
1.0374 1.18126 2.0469501
1.1722 1.86222 0.40183601
1.1722 1.2870899 2.5181401
1.0374 1.00629 1.92074
1.1722 1.81674 1.72586
1.0374 1.0079401 2.7109201
1.0374 1.3833801 0.81147802
1.0374 1.34154 2.24667
1.0374 1.34302 0.15169699
1.1722 1.2139699 1.0076801
1.1722 1.75946 0.58984298
1.0374 1.70415 2.89259
1.1722 1.4081 1.84804
1.1722 1.27123 1.90894
1.1722 1.5738699 2.4983799
1.1722 1.3920701 2.15906
1.0374 1.01125 1.70346
1.0374 1.1713901 0.069343001
1.1722 1.6473 2.562
1.1722 1.80765 1.05715
1.1722 1.56642 2.2934599
1.1722 1.23299 2.4489999
1.0374 1.67678 1.2719899
1.1722 1.81478 0.76867801
1.0374 1.62202 1.46219
1.0374 1.44788 1.94926
1.0374 1.74953 1.85276
1.1722 1.4458801 2.1135099
1.0374 1.68987 1.88668
1.1722 0.95078301 0.819085
1.0374 1.4450099 2.5209501
1.1722 1.73136 2.5143099
1.1722 1.48604 1.73658
1.1722 1.61575 1.03583
1.0374 1.40564 2.8981199
1.0374 1.09183 1.67693
1.1722 1.63235 1.52961
1.0374 0.947092 2.3294401
1.0374 1.57224 0.96683699
1.1722 1.30612 2.01736
1.1722 1.81612 1.06185
1.1722 1.35672 2.1596899
1.1722 1.79787 1.70376
1.0374 1.30452 0.46554199
1.1722 0.98941702 0.27513799
1.0374 1.645 2.5464399
1.1722 1.80323 1.62454
1.1722 0.99499798 2.13662
1.1722 1.1568201 0.781766
1.0374 1.53743 1.45751
1.1722 1.61359 2.64522
1.0374 1.19937 1.60683
1.0374 0.92574197 2.9287701
1.1722 1.3096 1.91906
1.1722 1.38744 2.10991
1.1722 1.59159 2.12868
1.0374 1.25985 2.4169099
1.1722 1.6733201 2.1261499
1.1722 1.12044 1.28689
1.0374 1.58775 1.43809
1.1722 2.0366099 1.27081
1.1722 2.00017 2.6775999
1.1722 2.04265 2.90856
1.1722 1.97384 2.9664199
0.39701301 2.50562 0.29094401
1.1722 2.81738 0.632568
1.0374 2.0295401 1.31293
0.31366199 2.8583901 0.079623602
0.85470402 2.50562 0.41959599
0.459297 2.5910299 0.74448699
1.0374 2.3995199 2.7485399
1.1722 2.0374701 2.73388
1.0374 2.39785 1.95643
1.0374 2.0188799 1.10748
1.0374 2.74931 0.35379201
1.0374 2.6461799 1.9493901
1.0374 2.82885 0.061215501
1.1722 2.5690701 2.6348
1.1722 2.0576301 1.90109
1.0374 1.94655 1.25097
0.58042401 2.7794199 0.74448699
1.0374 2.0853801 1.79419
0.57721299 2.50562 0.316587
1.1722 2.2530899 0.966627
1.0374 2.8339701 2.36163
1.1722 2.58499 0.072254203
1.0374 2.2207501 0.97096598
0.56063998 2.5550699 0.72224498
1.1722 1.89504 0.67381001
1.1722 1.92439 2.4467499
0.50787801 2.51089 0.56722599
1.1722 2.2562599 1.53627
1.0374 1.87772 1.19994
1.1722 2.01705 2.2379
1.1722 2.5608599 2.39378
1.1722 2.1340599 2.0805399
1.0374 2.10324 2.6877601
1.0374 2.67047 1.1000201
1.0374 1.9455301 2.51757
1.0374 2.5190201 0.32280099
1.1722 2.5401199 0.98494601
1.0374 2.1965699 1.27397
0.67970002 2.5548999 0.64684898
1.1722 2.5757699 1.2589999
0.86682802 2.6744299 0.27339599
0.70673698 2.73757 0.64684898
1.0374 2.2749 0.74787098
1.1722 1.89674 1.1518199
0.66592902 2.50562 0.28713199
0.64002103 2.76232 0.60383999
1.0374 2.1358099 1.07152
0.46319199 2.6604199 0.64684898
0.53377199 2.5550699 0.73936498
0.332414 2.6247101 0.64684898
0.86682802 2.7021401 0.197276
1.0374 2.1635399 1.4274499
1.0374 2.8294499 1.79302
1.0374 2.53339 2.56952
1.0374 2.2648101 1.63653
1.0374 1.98546 1.43995
1.0374 2.8613501 0.43736199
1.1722 2.6854601 0.0711243
0.52464801 2.51092 0.43617299
1.1722 2.2883699 1.84149
0.82381898 2.55564 0.173839
1.0374 2.2764001 2.9753499
0.55732697 2.8615799 0.74448699
1.0374 2.0459499 1.2300299
1.0374 1.94354 0.121444
1.0374 2.04298 2.2440801
1.0374 2.0448 2.4957299
1.0374 1.97675 0.56647098
1.0374 1.8849 2.1484101
0.86682802 2.7622099 0.500673
0.86682802 2.60832 0.198204
1.0374 2.4844899 2.6972699
1.1722 2.28598 2.8961999
1.1722 1.98831 2.8545599
1.1722 2.1726999 0.52334398
1.1722 1.8741 1.96615
0.52001297 2.50422 0.39955899
1.0374 2.425 0.93305999
0.86682802 2.5158899 0.137302
1.1722 2.83461 0.59319103
1.0374 2.5802801 0.738805
1.0374 1.95705 1.46099
1.1722 1.93932 0.53441399
1.0374 2.81218 1.85455
1.1722 2.5645299 1.29924
1.0374 2.4505401 1.2524
0.86682802 2.5703199 0.64464802
1.0374 2.2413099 1.82303
1.1722 2.3119299 0.84450603
1.0374 2.1147299 2.7285399
1.0374 2.37078 0.060448602
1.1722 2.3236101 2.8691499
1.1722 2.2485399 1.37014
1.1722 2.35185 1.8509099
0.63000602 2.50562 0.42454401
1.0374 2.5622201 2.75389
1.0374 2.1751299 1.37581
1.0374 2.2570901 1.13117
0.32413399 2.5860801 0.60383999
1.1722 1.8703901 1.21023
1.0374 2.8276401 2.9534299
1.0374 2.6365199 2.6958101
0.57443303 2.5178199 0.41524401
1.0374 2.4981301 2.8710201
1.1722 2.7410901 1.64046
0.82381898 2.6710701 0.73757499
1.0374 2.63589 0.49298501
1.1722 2.1152599 1.22282
1.0374 2.7818501 2.31288
1.1722 1.94302 2.0796499
1.0374 2.2855301 2.11308
1.1722 2.47767 2.26635
1.0374 2.2800601 0.730205
1.0374 2.6408401 1.78018
1.1722 2.2144899 0.62455302
0.64444703 2.50562 0.187649
1.0374 2.55936 2.19011
1.1722 2.2012501 2.6670401
1.0374 1.88225 2.2714
1.0374 1.90549 2.99967
1.0374 2.3719699 0.42928699
1.0374 2.0804701 1.31504
0.49775299 2.6440201 0.74448699
0.66517699 2.5764799 0.74448699
0.47022799 2.5601201 0.74448699
1.0374 2.6826999 2.38837
1.1722 2.2549901 2.78374
0.72822499 2.5577199 0.64684898
1.1722 2.4508801 0.68504298
0.43077299 2.78901 0.079623602
0.50716299 2.67747 0.60383999
1.0374 2.4688799 2.6186199
1.1722 2.3196101 2.8257999
1.0374 2.2983501 1.26793
1.1722 2.5660901 0.322882
1.1722 2.1946299 1.81817
1.0374 2.6659999 0.164387
1.0374 2.85092 1.46882
0.51954198 2.5206699 0.079623602
1.1722 2.6330299 2.48259
1.0374 2.4995899 1.31007
1.0374 2.24265 1.1479501
1.1722 2.6252699 2.0018499
1.0374 2.77386 1.4711699
0.45218301 2.5834701 0.74448699
0.479123 2.8452101 0.64684898
1.1722 2.3280499 0.42353299
0.70394403 2.50562 0.6045
0.37754899 2.6951399 0.74448699
1.1722 2.60746 2.36922
1.0374 2.2121 1.1955301
1.1722 2.8098099 1.70037
1.1722 2.65431 2.2483599
1.0374 1.88383 0.177876
1.0374 2.2650199 1.46887
1.1722 2.52613 2.0830901
1.1722 2.4506199 0.19780201
1.1722 1.88562 1.27186
0.72812301 2.78947 0.64684898
1.0374 2.6875401 2.2182
1.1722 2.8526499 1.88948
1.1722 1.96075 2.02947
1.0374 1.88366 2.9110799
0.82381898 2.73403 0.498285
0.291971 2.7221701 0.64684898
1.0374 2.7823801 1.38557
1.0374 2.4997699 2.0048101
1.0374 2.81814 2.5140901
1.1722 2.45911 0.128509
1.0374 2.5340099 2.8336101
1.0374 2.4196601 0.67504603
1.1722 2.79865 1.6860501
1.1722 2.2075701 1.0566601
1.0374 2.4789801 0.91155398
1.0374 2.8364401 1.2708
1.0374 2.36044 1.50507
1.0374 1.98419 0.99654299
1.0374 2.6519899 2.0020299
1.0374 2.57149 1.14325
1.1722 2.5518 2.3262701
1.1722 2.07515 2.2762101
1.1722 2.7069099 2.6591899
1.1722 2.51315 1.03917
0.82166201 2.8654599 0.079623602
1.0374 2.8440399 2.9202199
0.83438402 2.6180899 0.74448699
1.0374 2.67501 1.11211
0.402771 2.7938499 0.60383999
1.0374 2.63589 0.49298501
1.1722 1.8769799 2.52704
1.0374 2.00947 1.18024
1.1722 2.3482699 0.62613797
1.1722 2.7295599 0.64665699
1.1722 2.1252301 1.4906501
0.77910203 2.50562 0.55164802
0.452932 2.5581999 0.079623602
1.0374 2.22873 0.060038701
1.1722 2.0669301 0.25312901
1.0374 2.4342401 2.4028499
0.85366303 2.8127999 0.710926
1.0374 2.0183201 1.8648601
0.47799501 2.6242499 0.74448699
1.0374 2.6973901 0.710118
1.0374 2.8031499 1.70897
1.0374 2.83673 0.0642993
1.0374 2.33531 2.73964
1.1722 2.6206801 2.8448501
1.0374 2.2250199 2.90237
0.52209097 2.7275 0.74448699
1.1722 2.11904 2.8680899
1.0374 2.5551701 2.94348
1.1722 2.1939499 0.141636
1.1722 2.7395501 1.8263201
1.0374 2.1031799 1.50506
1.0374 2.1770201 1.33811
1.0374 2.14361 1.30312
1.0374 2.42027 0.611996
1.1722 2.74437 0.234613
0.359377 2.50562 0.200317
0.86682802 2.5088 0.323576
1.1722 2.8002701 1.93457
1.1722 1.9713 1.20556
1.0374 1.90039 1.20538
1.0374 2.1536601 1.51413
1.1722 2.3036101 2.6299801
1.0374 2.42713 0.49346301
1.0374 1.94862 0.33764201
1.0374 2.7148199 1.8309
1.1722 2.51738 1.01811
1.1722 2.84359 0.574413
1.0374 2.17822 1.7056
1.1722 2.12517 0.67122501
1.1722 2.01226 2.1483099
1.0374 2.1031401 2.51648
1.0374 2.4265001 0.81334299
1.1722 2.5710599 2.29509
0.67453301 2.50562 0.30308199
1.0374 1.92601 0.0950578
0.860057 2.66892 0.64684898
0.59476298 2.50562 0.47165999
0.82381898 2.7374101 0.086903401
1.0374 2.49121 2.32478
1.0374 2.8134899 2.9214699
1.1722 2.16927 0.90549099
0.297272 2.7507401 0.079623602
1.0374 2.5415499 0.45473301
1.1722 2.7335701 2.29846
1.0374 2.7840199 1.38463
1.0374 2.0704701 2.7845099
1.0374 2.37028 2.10255
1.0374 1.9351799 2.5368199
0.82381898 2.6057601 0.422804
0.53086501 2.8359699 0.60383999
1.1722 2.67226 0.98684502
1.1722 2.5360501 2.18277
1.0374 1.94048 0.454368
1.0374 2.2837701 2.52473
1.0374 1.98595 1.2871799
0.86682802 2.8255799 0.406506
1.1722 2.63831 1.3721
0.40267 2.6420801 0.60383999
0.492587 2.67434 0.079623602
1.0374 1.8917 2.4605801
1.1722 2.62305 1.03973
1.1722 2.5546999 1.52377
1.1722 2.2934401 1.94899
1.1722 2.7987299 2.34319
0.86682802 2.6316199 0.71771002
1.0374 2.2134199 2.7536299
1.0374 2.27405 0.44781399
1.0374 2.37078 0.060448602
0.86682802 2.59267 0.159831
0.82381898 2.7437999 0.52428102
1.0374 2.54058 0.96158898
1.1722 2.5223899 2.9371099
1.1722 1.93445 2.5628901
0.54790097 2.50562 0.64012903
1.0374 2.09146 2.4677401
1.1722 2.8654301 0.26673001
1.1722 2.37693 2.6053901
0.61851799 2.50562 0.29632601
1.1722 1.88806 1.0061001
0.82381898 2.6640601 0.718817
1.0374 2.7523601 2.60656
0.82381898 2.5712399 0.139193
1.0374 2.1091101 1.76994
0.36214501 2.60975 0.079623602
1.0374 1.942 0.46418199
1.0374 2.53582 0.16331001
0.86682802 2.5755501 0.318782
1.1722 2.51982 2.2265899
1.0374 2.8618901 0.062706701
1.1722 1.93954 1.11175
0.64850599 2.50562 0.22953901
1.0374 2.6991 0.50703001
1.0374 2.8051901 0.76225001
1.0374 2.7699001 1.78912
1.1722 2.80915 2.2967701
1.0374 2.6735301 0.21133
1.0374 2.41501 0.754785
1.0374 2.74874 2.5950501
0.64616299 2.5811999 0.64684898
1.0374 2.0159099 0.78877902
0.86682802 2.7844801 0.41303101
1.0374 2.07971 1.04891
1.0374 2.2634599 2.5425999
0.86682802 2.6528001 0.126132
1.0374 2.0795701 1.92641
1.0374 2.4439299 2.4561501
1.0374 2.03214 0.196465
1.0374 2.33813 2.91255
1.0374 2.0109601 1.29088
1.0374 2.2660999 0.36046699
1.0374 2.5580201 2.48243
1.1722 2.5350101 0.59581298
1.0374 2.5197101 0.31302899
1.1722 2.30668 0.832178
1.0374 2.4507201 1.1035
0.77202398 2.50562 0.26773301
1.1722 2.62763 2.9853201
1.0374 2.08166 2.10202
1.1722 2.0658801 2.27878
0.30654299 2.65453 0.60383999
1.0374 2.4012201 2.44524
1.0374 2.1163399 1.77213
1.1722 2.5548601 1.01147
0.40954101 2.50562 0.168369
1.1722 2.1287601 2.22013
0.86238801 2.50562 0.55014598
1.1722 2.72367 1.09402
1.0374 1.92045 0.55193001
1.1722 2.0469 2.7465301
1.1722 2.76683 1.66316
1.1722 2.23069 1.52628
1.0374 1.90924 0.57172602
1.0374 2.1329899 1.44475
1.0374 2.85499 1.43556
1.0374 2.0873599 2.1809299
1.1722 2.62324 2.3397999
1.1722 2.35829 1.87348
0.86682802 2.6022699 0.088212803
1.0374 2.6920099 1.2389899
1.1722 1.8919899 1.4903899
0.82381898 2.7641499 0.42379001
1.1722 2.8677299 0.91126001
1.1722 2.80495 2.4428401
1.0374 2.79316 0.98632097
0.318993 2.66868 0.74448699
1.1722 2.7309 0.91946501
0.86682802 2.72402 0.486927
1.1722 2.5087399 1.9729
0.52237099 2.5676899 0.079623602
0.34327701 2.50562 0.098510899
1.0374 2.1306901 0.228195
1.0374 1.99174 0.40823001
1.0374 2.48592 1.14618
1.1722 2.3566401 2.6643701
1.0374 2.6488199 2.42329
1.0374 2.1047001 0.30836299
1.0374 1.97198 2.95662
0.41990399 2.5091 0.42109901
0.52275699 2.5550699 0.72970402
1.1722 2.2041099 0.65525502
0.42661899 2.50562 0.591519
0.86682802 2.56689 0.593292
1.1722 2.19222 0.66579998
1.0374 2.56776 1.20403
1.1722 2.3411801 0.76493102
1.1722 2.8196499 1.07824
1.0374 2.83816 1.01833
1.0374 2.01952 2.23611
0.401081 2.76243 0.64684898
0.82381898 2.8102 0.52797699
1.0374 1.9471999 0.71833599
1.1722 2.6315899 0.40366301
1.1722 2.8108201 0.97344899
1.0374 2.70719 1.44877
1.0374 2.5683501 1.41866
1.0374 1.90757 0.56299198
0.44685 2.50562 0.60012901
1.0374 2.7960701 0.79280198
1.1722 2.41119 0.60838598
0.61283398 2.5167899 0.64684898
1.0374 2.47223 0.448746
0.754134 2.5211301 0.60383999
1.0374 2.0197599 1.26545
1.0374 2.76212 1.35353
1.1722 1.98578 1.24288
0.86682802 2.6158199 0.196706
1.0374 1.94594 2.3222799
1.0374 2.11497 1.99587
0.82381898 2.8071699 0.56160599
1.1722 2.4719801 1.44698
1.0374 1.8700401 0.50531501
0.61623901 2.50562 0.736494
1.0374 2.84003 1.51442
0.52614701 2.5178199 0.080062702
1.0374 2.5776801 2.38872
1.0374 2.31177 1.04207
1.0374 2.65134 1.74749
1.1722 2.65693 0.58644497
1.0374 2.45927 0.87781698
1.1722 1.97451 1.30331
1.0374 2.0002899 2.1931701
1.0374 2.34042 2.6414101
1.1722 2.4050701 1.97699
1.1722 2.59183 2.6027999
1.1722 2.2300601 2.1582999
1.1722 2.4955699 2.06142
0.32860601 2.7170501 0.64684898
1.1722 2.8060999 1.87473
0.82381898 2.64009 0.100163
1.1722 2.80948 1.91079
0.482063 2.75476 0.079623602
1.1722 2.0350599 1.36917
1.1722 2.15219 2.30724
1.0374 1.97692 0.075911596
1.1722 2.7386799 0.62777698
1.1722 2.4618001 0.27542001
1.0374 2.8002901 1.68862
1.0374 1.95044 0.82593501
1.0374 2.4642999 2.4133899
1.1722 2.62959 2.66348
1.1722 2.4848001 1.93794
1.0374 2.29387 1.2260799
1.1722 2.2832899 2.31267
0.53022701 2.75863 0.74448699
1.0374 2.2467501 2.48299
0.58451098 2.7774601 0.74448699
1.0374 2.42711 0.89228398
1.0374 2.58691 2.2904999
1.1722 1.93511 1.4117399
1.1722 1.93397 2.5381801
0.44690099 2.5076101 0.710926
1.1722 1.8979 0.62851298
1.1722 1.9223599 0.149562
1.1722 2.2543001 2.89798
1.0374 2.6019399 2.88555
1.1722 2.6709001 1.95886
1.1722 2.4799399 2.4294801
1.1722 2.6443999 0.35216501
1.1722 1.938 2.58413
1.1722 2.86375 1.71152
1.1722 2.3348801 2.92715
1.0374 1.98434 2.75687
1.0374 2.0290201 1.11621
1.0374 1.95983 0.83069003
1.1722 2.03229 1.8155
1.1722 2.6958499 2.6577599
1.0374 2.3821399 0.54902297
0.85343099 2.50562 0.15547501
1.0374 2.0197599 1.26545
0.58014297 2.6617301 0.079623602
1.1722 2.13112 0.175588
0.82381898 2.5217299 0.43868399
0.79684901 2.6356101 0.079623602
1.0374 1.98438 2.3538001
1.1722 2.3882999 2.71767
0.357454 2.6494501 0.64684898
1.1722 2.3004999 0.416713
1.1722 1.88133 1.20636
1.1722 1.91588 1.31705
0.84892702 2.6928999 0.64684898
0.82381898 2.80951 0.59091598
1.0374 2.57778 0.37388
1.1722 2.33198 1.9869
0.57609701 2.5178199 0.16647699
1.1722 2.53491 0.0803838
1.0374 2.6605699 1.82358
1.0374 2.2439899 1.41908
1.1722 2.71924 0.21411
0.59552699 2.7348299 0.079623602
1.1722 2.7625799 0.073508702
1.1722 1.8825099 0.96340901
1.1722 2.1157601 0.42197001
1.0374 2.2086999 0.49789301
0.3775 2.50562 0.36930099
0.71932697 2.5076799 0.64684898
1.0374 2.08764 2.0576899
1.1722 1.97426 2.42325
1.1722 1.98791 1.6855201
1.1722 2.8234401 1.51806
1.0374 1.9844199 2.8417699
0.28734201 2.50562 0.47793201
1.0374 2.2465799 1.4165601
1.0374 2.4658101 2.9203801
1.0374 2.8414299 0.61822301
1.0374 2.3689001 0.97623402
1.1722 2.8549199 0.17501099
1.0374 1.94333 1.63557
1.0374 2.6573901 0.310325
1.1722 1.87169 2.5827401
0.86682802 2.51759 0.44806999
1.0374 2.3982799 0.353185
1.1722 2.4168501 0.293163
1.1722 2.0393701 2.67416
0.41990399 2.5160999 0.13771699
1.1722 2.21591 0.21145201
1.1722 2.53581 2.9288001
1.1722 2.6745501 2.97999
1.0374 2.20083 1.36312
1.0374 1.93998 2.07652
0.82381898 2.71366 0.722767
1.1722 2.78477 2.54425
1.0374 2.5118501 1.79186
1.1722 2.2997401 0.59765297
1.1722 2.5384099 0.070234999
1.0374 2.1371901 0.88350302
1.1722 2.1282101 0.60471398
1.1722 2.0469 2.7465301
1.0374 1.93355 1.01774
0.547876 2.5550699 0.72664201
0.82381898 2.79968 0.48701999
1.0374 1.94638 0.191346
1.0374 2.45188 1.36285
1.1722 2.5650799 0.57791799
1.0374 2.16346 2.41609
1.1722 2.78179 1.40219
1.0374 1.9370199 0.175391
0.86312097 2.50669 0.74448699
1.0374 2.3338399 0.26567
1.0374 2.1918001 0.65652001
0.63354403 2.8180599 0.74448699
1.1722 2.82233 0.76143301
1.1722 2.0209 0.30801201
1.1722 2.2365899 0.96417701
1.1722 2.1789501 1.505
1.1722 1.90248 2.52864
0.42069 2.51369 0.30511799
1.1722 2.4616799 0.29300901
0.82381898 2.6452501 0.37537199
1.0374 2.2183299 0.77815801
1.1722 2.4630201 1.56226
1.0374 2.60342 0.36397499
0.67129898 2.62586 0.079623602
1.0374 1.87999 1.8641599
1.1722 2.56408 2.1391599
1.1722 2.0911 1.45581
1.0374 2.5139699 1.1253099
1.1722 2.51455 2.6586499
1.1722 2.1486499 1.7289
1.0374 2.0267601 1.92761
0.662889 2.73858 0.74448699
1.0374 2.3829401 0.90907001
1.1722 2.12343 1.5853601
0.80083501 2.74647 0.74448699
1.1722 2.8039 2.5015399
1.1722 1.94302 2.0796499
1.0374 2.3991001 2.14446
1.1722 2.342 2.5987
1.0374 2.51404 2.1222401
1.0374 2.5364201 0.71704203
1.1722 2.8147399 1.39727
0.61677003 2.7003901 0.60383999
1.1722 2.7578199 2.2545099
1.1722 2.8348501 1.58275
1.0374 2.84495 0.50473702
1.0374 2.0192101 1.10636
1.1722 2.0604999 0.219686
1.1722 2.7921901 0.40880999
1.1722 2.07235 0.246429
1.0374 2.09776 2.30709
1.0374 2.56106 1.2893699
1.1722 2.5053799 0.78364903
1.1722 2.16868 2.8785701
1.0374 2.19678 1.00134
1.0374 2.3045499 0.185113
1.1722 2.34519 2.30846
1.1722 2.29178 1.67207
1.0374 2.0934899 2.3264301
0.61322403 2.50562 0.205413
0.62162203 2.5311401 0.64684898
1.1722 2.3137701 0.43337399
1.1722 1.88375 1.3961
0.81503701 2.50562 0.48786899
1.1722 2.74788 2.6331201
1.0374 2.38818 1.5114599
1.0374 1.9876 0.13600001
1.1722 2.10783 2.90712
1.1722 2.3715501 0.162726
1.0374 2.3460901 1.7965699
0.83132702 2.50562 0.0240009
1.1722 2.7162099 0.70149797
0.794402 2.7128501 0.079623602
1.0374 2.6566701 2.26717
1.0374 2.80755 1.90344
1.1722 2.3995299 1.91219
1.0374 2.34325 0.13404299
1.0374 2.2726099 2.0978701
0.452887 2.5063901 0.710926
1.0374 2.29003 1.8832
1.1722 2.6677499 0.54196501
0.31775701 2.50562 0.186407
1.0374 2.80246 2.47435
1.0374 2.5348899 0.89716601
0.37568101 2.50562 0.16883101
1.0374 1.86992 2.4552901
1.0374 2.49931 2.9755199
1.1722 2.35987 0.503313
1.0374 2.71035 2.0727799
1.1722 2.03391 2.05092
1.1722 2.27142 0.45535001
1.0374 2.4014001 1.82166
1.1722 2.1196001 2.2121601
1.0374 2.0167799 0.48198
1.0374 2.4400401 2.4325199
0.86682802 2.8605299 0.066040702
0.854954 2.5320499 0.74448699
0.76111299 2.8585 0.74448699
1.0374 1.96516 1.7772501
1.0374 2.14291 0.288728
1.1722 2.0629399 0.081051096
1.1722 2.5053401 0.73873401
1.1722 2.2829101 0.7245
1.0374 2.3659699 0.241915
1.1722 2.0568399 1.16123
1.1722 2.43975 0.90723503
1.0374 2.25052 1.90856
0.86682802 2.5900099 0.61752301
0.34259099 2.50562 0.46735001
1.0374 2.1619699 1.82261
1.1722 2.3954599 2.46346
1.0374 2.2521501 0.77572501
1.0374 2.5191 2.91524
1.0374 2.2098 0.34457701
1.0374 2.1606901 0.816037
1.0374 2.6903999 0.23365299
1.1722 2.12923 0.21922299
1.0374 2.7833099 0.30917501
1.0374 2.2653401 2.4690101
1.1722 2.03179 0.44642401
1.1722 1.9430701 2.05619
1.0374 2.61148 2.6131201
1.1722 2.76772 2.2869201
0.56270099 2.4943199 0.38735399
0.47900501 2.5178199 0.173539
0.82166201 2.8654599 0.079623602
1.1722 2.4188399 2.9194601
1.1722 2.3358901 0.845321
1.1722 2.7967501 2.04335
1.1722 2.3462 0.088853799
1.0374 2.2509999 2.4560599
0.33299699 2.6655099 0.60383999
1.1722 1.9320101 2.5678
1.1722 1.97086 1.53543
1.0374 2.4943099 1.37407
1.0374 2.78074 0.68902898
0.67782402 2.80919 0.60383999
1.1722 2.72628 2.59554
1.0374 2.5669999 1.93266
1.1722 2.34447 2.13574
1.0374 2.6503899 2.9042001
1.1722 2.4466 0.31255201
1.0374 2.4544401 1.80326
0.47542 2.7230999 0.64684898
0.410198 2.7829299 0.60383999
0.67118901 2.50562 0.56669497
1.0374 1.96138 0.025959199
1.0374 2.6906099 2.20753
0.82381898 2.6169 0.53151298
0.475508 2.50562 0.71506
1.0374 2.46139 0.41493201
1.1722 1.869 0.25663999
1.1722 1.96716 1.63394
0.46182299 2.65432 0.64684898
1.0374 2.1920099 1.09304
1.0374 2.26985 0.76059401
1.1722 2.23826 2.0376699
1.0374 2.7421501 1.7036901
1.0374 2.1773701 1.03613
0.588633 2.5493801 0.60383999
1.0374 2.61342 2.50053
1.1722 2.6589401 0.50176698
0.41685101 2.50562 0.22416499
1.0374 2.5722699 2.13223
1.1722 2.8594401 1.50125
0.83527899 2.50562 0.250348
0.86682802 2.8047299 0.52882999
1.0374 2.37799 2.5188401
1.0374 2.05743 2.7725699
1.1722 2.0613699 0.94781601
1.0374 1.91673 1.2922
1.1722 2.46155 0.25266099
1.1722 2.6752501 2.37885
1.0374 2.5633199 0.56695902
1.1722 2.8051701 0.67652899
1.0374 2.27001 2.92325
1.0374 1.95077 2.93524
1.0374 1.95052 0.94211298
1.1722 2.4483199 2.20611
1.1722 2.1075201 2.6625299
0.62579501 2.7221501 0.64684898
0.34637401 2.60728 0.079623602
0.50003701 2.6495199 0.079623602
1.1722 2.1387401 2.7421899
1.0374 2.43296 2.46123
1.0374 2.0632999 1.6129301
1.1722 2.33743 2.94295
1.0374 2.2390599 2.77405
1.0374 2.0622101 1.63794
1.0374 2.05949 2.85467
0.86682802 2.60497 0.319646
0.59385198 2.50562 0.72968203
1.0374 2.60043 2.41645
0.44913399 2.71263 0.74448699
1.0374 2.42855 1.84308
1.1722 2.33129 0.37266001
0.45255801 2.64569 0.079623602
1.1722 1.9552 1.49228
1.1722 2.4967101 1.01104
1.0374 2.43908 0.44976601
0.697662 2.50562 0.47219399
1.1722 2.12446 0.54417002
1.1722 1.87155 0.420286
1.1722 2.8508401 2.95737
1.1722 2.6753099 0.55079502
0.51378697 2.5178199 0.219284
1.0374 2.53318 2.1594701
1.1722 2.8099999 1.40684
0.83855897 2.6054001 0.710926
0.41694301 2.6731 0.74448699
1.1722 1.9526401 0.24224301
1.0374 2.5948701 0.70123702
0.82381898 2.71295 0.46913499
1.1722 2.84126 1.52341
0.65932 2.8072801 0.64684898
1.0374 2.0810299 1.0914
0.86682802 2.7074001 0.0816788
1.1722 2.8095901 1.08083
0.33645499 2.5387499 0.60383999
1.0374 2.35379 1.81657
1.0374 2.02842 2.34744
1.1722 2.5608599 2.39378
1.0374 2.6663599 0.602413
1.1722 2.5504301 0.86950302
1.1722 2.5013499 1.45103
1.0374 2.80721 0.82431501
0.53458399 2.50562 0.33597201
1.0374 2.35232 1.4836299
1.0374 2.2518899 0.23774
1.0374 2.16415 1.50218
1.1722 2.63764 2.3833201
1.0374 2.08166 2.10202
1.1722 1.90605 0.188875
1.1722 2.0541301 0.028256301
1.1722 2.79898 1.04611
1.1722 2.0998099 0.65269798
1.0374 1.8936501 0.216603
1.0374 2.19047 1.83199
1.1722 2.01054 0.13007399
1.0374 2.3995199 2.7485399
1.0374 2.6275001 0.037190501
1.1722 1.97949 0.88709801
1.1722 2.8599 1.99069
1.0374 2.22212 2.9367299
1.0374 2.12254 0.39184499
1.1722 2.69628 1.4462301
1.1722 2.3468299 0.99021
1.0374 2.6273701 0.31095499
1.1722 2.0523801 0.073729798
1.0374 2.5744901 2.2883101
0.39753801 2.50562 0.57292002
0.32840401 2.7234399 0.60383999
0.69796902 2.79811 0.079623602
1.0374 1.9865 1.81119
1.0374 1.9857399 1.7970001
0.62758499 2.50562 0.39279899
1.1722 2.25174 0.241927
1.0374 2.7882199 2.46701
1.0374 1.89943 0.155618
1.0374 2.0738499 2.5015399
1.1722 2.58951 1.49303
1.1722 2.6322501 2.8261299
0.33137599 2.6405699 0.74448699
1.1722 2.47718 0.149333
1.0374 2.5492001 0.232135
1.1722 2.78477 2.54425
1.0374 2.58477 1.38545
0.61802 2.50562 0.36100799
1.0374 1.92422 2.27542
0.82381898 2.7125101 0.43762001
1.0374 1.96385 2.4297299
0.64691001 2.81847 0.60383999
1.0374 2.44382 1.77013
1.0374 2.6351399 1.32882
1.0374 1.99511 1.24906
0.82381898 2.5933599 0.215279
1.1722 2.19942 0.119052
1.0374 2.7018399 1.98602
0.634251 2.5106699 0.64684898
1.1722 2.2162399 0.208776
1.1722 2.52528 1.44328
1.0374 2.5366099 2.1080501
0.86682802 2.7630899 0.57379198
1.1722 2.1235001 1.24049
0.63289601 2.58109 0.74448699
0.86682802 2.80089 0.61398703
1.1722 2.4396501 2.8796301
1.1722 2.1042199 2.18613
1.0374 2.54742 2.1886599
1.1722 2.3642499 2.9124501
1.1722 2.4179699 1.20976
1.1722 2.415 0.37886101
1.1722 2.1396501 0.522865
0.486828 2.5501499 0.079623602
1.1722 2.0592401 1.45723
1.1722 2.86375 1.71152
0.71514499 2.50562 0.483814
0.86682802 2.7943201 0.31709099
1.0374 2.0055699 2.75085
1.0374 2.2167201 0.270668
0.66607398 2.7602401 0.079623602
1.1722 2.4381499 1.34698
0.53692198 2.6176701 0.079623602
1.0374 2.1891999 2.5331399
1.0374 1.96026 0.79543
1.0374 2.4758101 2.2797999
1.0374 2.0387199 1.9248101
1.0374 2.1070099 2.3015599
1.1722 2.7911 2.1797299
1.0374 2.0913501 0.41255701
1.1722 2.08234 0.193076
1.1722 2.5106699 2.89992
1.1722 2.0594101 2.34636
1.0374 2.5135801 1.51354
1.1722 2.3004899 2.0702801
1.1722 2.1459601 1.72446
1.1722 1.88577 0.125618
1.1722 2.04321 0.153532
1.0374 2.0489399 0.60853499
0.86682802 2.80809 0.0877138
1.1722 2.6929801 1.54357
0.53022701 2.75863 0.74448699
0.365347 2.8226399 0.64684898
0.44080999 2.61883 0.079623602
0.766132 2.6798799 0.079623602
1.1722 2.8577099 1.9328001
0.47221899 2.6331601 0.64684898
0.565813 2.70983 0.74448699
0.82381898 2.70837 0.41432101
1.0374 2.4818001 0.68832999
0.86682802 2.5667801 0.320402
1.1722 2.7797899 1.23887
1.1722 2.07375 1.9295
0.82381898 2.6379399 0.50157303
0.46329099 2.51335 0.17406499
1.1722 2.6482 1.60859
1.1722 2.3180001 1.58014
1.0374 2.1689999 2.0144801
0.59115499 2.50562 0.109641
0.82381898 2.5114 0.131422
1.0374 2.0014701 2.0528901
1.1722 2.66202 2.03304
1.1722 2.2413099 2.9825799
1.0374 2.1956799 0.32653999
1.0374 2.4870999 0.66538203
1.0374 2.50772 2.0996399
1.0374 2.67712 2.6302199
1.1722 2.25157 2.1698899
1.0374 2.6897299 2.6493499
0.768996 2.7208099 0.64684898
1.0374 1.925 2.2189901
1.1722 1.93761 0.38036799
1.0374 2.8331001 2.2920599
1.1722 2.2348299 1.90202
1.1722 2.05195 2.0732701
1.1722 2.842 0.66602403
1.1722 2.50227 1.05484
1.1722 2.61516 0.87797302
1.0374 2.8257501 1.57779
1.1722 1.98062 0.060747098
1.0374 2.60044 0.92064101
1.1722 1.90911 2.0968399
1.0374 2.6893401 1.38396
1.1722 2.19064 0.84542698
1.0374 2.5139501 1.9133
0.83654499 2.5550699 0.71074897
1.1722 2.03194 0.61714298
1.0374 2.1887901 2.5336201
1.1722 1.91877 2.16171
1.0374 2.4330599 0.95847702
1.1722 2.6803 0.65408701
1.0374 2.63744 2.5693099
1.1722 1.88946 0.124907
0.59287697 2.50562 0.64627397
1.0374 1.91623 0.13568901
1.0374 1.87026 2.1705799
1.1722 2.8491399 0.87564099
0.553155 2.7709401 0.64684898
1.0374 1.90152 1.67128
1.1722 2.3180699 2.95012
1.1722 2.07688 2.02686
0.429948 2.8666301 0.079623602
1.0374 2.2021201 0.52666003
1.0374 2.6154101 1.7932
1.0374 2.63027 2.3413601
1.1722 2.8111501 1.4740601
0.66826898 2.50562 0.53890699
1.0374 1.99178 0.47788101
1.0374 2.5683501 1.41866
1.1722 2.7486999 2.17816
0.33665699 2.50562 0.350339
1.1722 2.4312501 0.033373699
1.1722 2.75437 1.32544
1.1722 2.80441 1.5125099
1.1722 1.86919 2.9507501
1.1722 2.81443 0.313113
1.1722 1.90154 0.79962599
1.1722 1.94882 1.92845
0.79728299 2.6232901 0.74448699
0.86682802 2.68872 0.223967
1.1722 2.0081601 1.20524
1.1722 2.29672 1.61769
1.1722 2.64519 0.90583301
1.1722 2.74929 0.97912401
1.1722 2.5827899 2.2255599
0.82381898 2.5410199 0.115327
1.1722 2.7779801 1.16248
1.1722 1.97228 0.86333698
1.1722 2.74404 0.28070399
0.82381898 2.60478 0.48985401
1.1722 1.9648499 0.0252531
1.1722 2.10303 1.43334
1.0374 1.92515 0.68637902
1.0374 2.6168301 0.453816
1.0374 2.39347 0.93926799
1.0374 2.0671599 1.18073
1.0374 2.7937801 1.00069
0.51687902 2.8304801 0.079623602
1.0374 2.5464799 0.67053401
1.1722 2.7813001 1.32147
1.1722 2.6708601 1.83648
1.1722 2.8362999 0.175265
1.1722 2.15803 1.47847
1.1722 2.4268701 2.36675
1.1722 2.5023999 2.74543
0.54006201 2.6019499 0.64684898
1.0374 1.94358 1.52645
0.48180699 2.5202999 0.64684898
1.0374 2.1821599 1.7580301
1.1722 1.92857 0.65474302
1.0374 2.39992 2.5799699
0.28731099 2.8545401 0.74448699
1.0374 2.6665699 1.08908
0.63112098 2.73318 0.74448699
1.0374 2.2167201 0.270668
1.0374 2.4305899 2.76244
1.0374 2.07058 0.80202901
1.0374 2.0065501 0.083157599
1.0374 1.97407 1.3263201
0.62755901 2.7808101 0.74448699
1.1722 2.34811 0.754412
1.0374 1.91961 0.19047201
1.1722 2.6881599 1.50811
1.1722 2.35095 2.8025999
1.1722 2.3715301 2.5752699
0.59899098 2.52266 0.64684898
1.1722 2.7339201 0.65290999
1.0374 2.05265 2.1482301
1.1722 2.26211 2.78529
1.1722 2.5172 2.09796
1.1722 1.93714 0.93199903
0.86682802 2.67523 0.38719201
1.0374 2.29196 1.75376
0.86682802 2.52984 0.086516298
1.0374 2.7369399 0.66557199
1.0374 2.0272999 0.927342
1.1722 2.57867 0.18208
1.1722 2.7510099 1.7115099
0.546381 2.5636001 0.74448699
1.1722 2.8171401 1.04452
1.0374 2.3575101 2.1165099
0.56805903 2.67327 0.60383999
1.1722 2.0771401 0.109214
1.1722 2.4827399 2.9652801
1.1722 2.6869299 0.34718999
1.1722 2.3006001 0.99949998
1.1722 2.2519 0.119483
1.0374 1.9572999 1.59135
0.479123 2.8452101 0.64684898
1.1722 2.8234899 1.52549
1.0374 2.61817 1.7934
0.512088 2.6707201 0.60383999
1.0374 2.8298299 2.13025
1.0374 2.07639 0.484896
0.49306801 2.50562 0.61838502
1.1722 2.3052001 1.07538
1.0374 2.6361301 1.34477
0.51144701 2.5190799 0.079623602
1.0374 2.04544 2.1705101
1.0374 2.3796501 0.42819899
1.1722 2.1942799 0.38745901
1.0374 2.2260301 2.88767
1.0374 2.5209 2.3618801
0.58537698 2.7578001 0.60383999
1.1722 2.04568 1.41452
1.0374 2.4530201 0.48945999
0.71596402 2.6452701 0.60383999
1.1722 2.2453799 0.388724
1.0374 2.4879899 1.1519099
1.0374 2.57091 2.83301
1.0374 1.90058 2.86061
0.39662701 2.7028501 0.60383999
1.0374 2.83921 1.39152
1.1722 1.94663 1.1217901
0.45020899 2.51278 0.21067899
1.0374 2.8541901 0.93197101
1.0374 2.7844 2.141
1.1722 2.33164 1.92954
1.0374 2.6029601 0.65708601
1.0374 2.64785 2.9380701
1.0374 2.3759401 1.15732
1.1722 2.0890601 2.2711599
0.748595 2.6284299 0.64684898
0.37942901 2.7430501 0.64684898
1.0374 2.5875399 0.43532601
0.71969301 2.50562 0.52055502
1.0374 2.1257901 0.83693498
1.0374 2.35254 0.88788098
1.0374 2.79813 0.378452
1.1722 2.05125 0.14138401
1.0374 2.3996501 2.26507
1.0374 1.88336 1.85848
1.0374 2.14201 2.1066699
0.66100001 2.50562 0.35932699
0.59330499 2.5708399 0.079623602
1.1722 2.7639999 1.65121
1.0374 2.5706999 1.36454
1.1722 2.25703 0.203839
1.1722 2.6217201 2.4839101
1.1722 1.87547 1.35452
1.0374 2.2790101 2.9441299
0.717996 2.5257599 0.710926
1.1722 2.8657701 1.90036
1.1722 2.6869299 0.34718999
1.1722 2.32161 0.047117598
1.0374 2.1534801 0.69656998
1.1722 2.09799 1.70856
1.1722 2.33793 2.5543399
1.1722 2.6938601 2.25459
0.72750098 2.69415 0.60383999
1.0374 2.2233601 2.4843299
0.85275298 2.8473301 0.64684898
1.0374 2.55019 1.0862
1.0374 2.2420399 1.1827101
0.53046101 2.7836699 0.079623602
1.0374 2.72995 0.93585098
1.1722 2.4121101 0.52811903
0.69168597 2.5211501 0.710926
0.81064099 2.8489699 0.64684898
1.1722 2.1512599 0.84526598
1.0374 2.4043801 2.8803401
1.0374 2.0245199 0.69203401
1.0374 2.0422399 1.65792
1.0374 2.3812301 2.23681
1.0374 1.98638 2.9365399
1.0374 2.7012401 2.03878
0.86476701 2.50562 0.18402401
0.35642499 2.50562 0.29278001
0.57934302 2.6357801 0.079623602
1.1722 2.01809 0.58133799
1.1722 2.52368 0.30998701
0.61623502 2.82321 0.64684898
1.0374 2.5404501 2.4407799
1.0374 2.3601501 2.74195
1.1722 2.5617199 2.9116001
1.0374 2.6169901 1.24604
1.1722 2.2179401 1.87837
0.40791199 2.60811 0.079623602
1.0374 1.9663 2.98592
1.0374 2.6013899 2.09003
1.0374 2.19028 2.8303399
1.0374 2.24559 0.14606801
1.1722 2.7866199 0.84005898
1.0374 1.95588 0.29335201
0.64957702 2.5929401 0.079623602
1.0374 2.3427401 1.517
1.1722 2.29092 0.053215001
1.1722 2.4344201 0.083666101
1.1722 1.93197 0.19963001
0.70299399 2.7643199 0.74448699
1.0374 2.2646501 2.7126999
0.561876 2.5178199 0.161272
1.0374 2.8497601 0.83661503
1.1722 2.5778699 1.59885
0.77700198 2.58478 0.74448699
1.0374 1.93975 2.2365699
0.78292501 2.8434999 0.64684898
0.5438 2.5115399 0.60383999
1.0374 2.80899 2.2855201
1.1722 2.8022001 1.21198
1.0374 2.0730901 1.66881
0.39382699 2.71281 0.74448699
1.0374 2.6206801 0.728212
1.1722 2.5437901 1.8116601
0.86682802 2.8052299 0.63687003
1.1722 2.16043 2.4157701
1.1722 1.9687999 0.079827003
1.0374 2.61235 0.322611
1.1722 2.7070799 1.3031501
1.1722 2.27231 2.8234
0.52705503 2.54778 0.60383999
1.0374 2.6758499 2.26229
1.0374 2.4202299 0.63174301
0.53450102 2.5063901 0.13745099
1.1722 2.7435901 1.13985
0.86682802 2.7818799 0.122599
1.1722 2.8506801 0.88937098
0.86682802 2.54252 0.28095999
1.1722 1.94361 1.69452
1.0374 2.2350299 0.906398
0.42638001 2.50562 0.43767399
1.1722 2.28703 2.1832199
0.72000301 2.50562 0.126848
0.54309797 2.5178199 0.28018799
1.1722 2.2855799 0.71534997
1.1722 2.83394 2.5836699
1.1722 2.0874 1.67072
1.0374 2.0016699 1.55328
1.1722 2.6008601 1.59471
1.1722 2.43118 0.67585701
0.86682802 2.5097401 0.240374
1.1722 1.9078701 1.25159
1.0374 2.1744499 2.0697501
1.1722 2.5927701 2.631
1.0374 2.6411901 1.77206
0.81569701 2.8558199 0.64684898
1.1722 2.7876401 0.099556401
1.1722 2.5470099 2.1793799
1.0374 2.68344 1.27879
1.0374 2.66029 0.51982599
1.0374 2.8154299 1.08052
1.1722 1.99122 1.43671
1.1722 2.7553201 1.81037
1.1722 2.7841201 0.337861
1.1722 2.19133 2.1697299
1.1722 2.5659499 2.76753
0.86682802 2.68261 0.192165
0.49059999 2.50562 0.33419499
1.1722 2.4727499 1.92471
0.50787801 2.51089 0.56722599
1.0374 2.85952 2.5864799
1.0374 2.6361301 1.34477
0.86682802 2.6626599 0.546992
1.1722 2.4791 0.274443
1.1722 2.5548601 1.01147
0.74824202 2.50562 0.149837
1.1722 2.4989901 2.1226699
1.1722 2.2883401 1.7055399
1.1722 2.4462099 2.9833
1.0374 1.916 1.25884
0.56976801 2.59832 0.64684898
1.0374 2.0167899 1.7875201
0.496526 2.7539101 0.60383999
1.1722 2.33934 2.0174501
1.0374 2.6382101 0.446365
1.0374 1.9443001 2.1830399
1.0374 2.55373 2.1048901
1.1722 2.8013699 2.9528699
1.1722 2.18922 1.89318
1.0374 1.94741 1.56865
1.0374 2.2235601 2.9556301
1.1722 1.93791 1.01139
1.0374 2.1713099 2.1989
1.1722 1.92374 0.52344197
1.1722 1.87665 2.93277
1.1722 2.50546 0.256136
1.0374 2.2215099 1.94036
1.0374 2.32376 1.88352
1.0374 2.5443599 2.1214299
1.1722 2.63623 1.43099
1.1722 2.1942799 0.38745901
1.0374 2.7896299 2.5687001
1.1722 2.3079801 1.7246
1.0374 2.8394799 1.5628901
1.0374 2.77859 2.5364201
1.0374 1.89095 1.84331
1.1722 2.6405101 0.62437999
1.1722 2.0457301 2.4182899
1.1722 2.5656199 0.29119799
1.0374 2.8527999 1.19475
0.82381898 2.70559 0.60208398
0.74165303 2.50562 0.53299201
1.1722 2.09361 1.40444
1.1722 2.17641 2.2590799
1.0374 1.99702 0.204555
1.1722 2.3756399 1.32287
0.57636499 2.8323901 0.079623602
1.1722 2.20031 1.05231
0.660824 2.5292699 0.64684898
0.35998699 2.75015 0.64684898
0.82381898 2.72405 0.43073601
0.86682802 2.7251401 0.41171801
1.1722 2.6408899 2.93208
1.1722 2.4488399 0.318699
