# .PCD v0.7 - Point Cloud Data file format
VERSION 0.7
FIELDS x y z
SIZE 4 4 4
TYPE F F F
COUNT 1 1 1
WIDTH 1662
HEIGHT 1
VIEWPOINT 0 0 0 1 0 0 0
POINTS 1662
DATA ascii
4.6217899 -0.88179898 3.06218
4.4484701 -0.67568702 3.0999999
4.66675 -0.14533 3.06218
4.3037 -0.286098 3.0999999
4.6977701 -1.03283 3.06218
4.5725002 -0.76902801 3.0999999
4.4766202 -0.37305599 3.0999999
4.4700499 -0.343299 3.06218
4.5725799 -0.78615397 3.0999999
4.47472 -0.71686399 3.06218
4.69034 -0.60837197 3.06218
4.5478301 -0.236283 3.0999999
4.4506202 -0.16431899 3.0999999
4.3682599 -1.10939 3.06218
4.58991 -0.29543501 3.06218
4.5638099 -0.47427699 3.0999999
4.6176 -0.88891101 3.0999999
4.6577802 -0.565247 3.06218
4.4653502 -0.86703998 3.0999999
4.6707201 -0.56057101 3.06218
4.5371399 -0.97948802 3.0999999
4.6682901 -0.75017297 3.0999999
4.68821 -0.24524701 3.0999999
4.5577302 -0.99322098 3.0999999
4.5073099 -1.0028501 3.06218
4.29459 -0.530137 3.0999999
4.56042 -1.07008 3.06218
4.3973498 -1.06165 3.06218
4.4453201 -0.70725 3.0999999
4.4958 -0.98693502 3.0999999
4.5069098 -0.344246 3.06218
4.29386 -1.02285 3.06218
4.31283 -1.06839 3.06218
4.31742 -0.144724 3.06218
4.48101 -0.188972 3.0999999
4.58255 -0.75235301 3.06218
4.68821 -0.24524701 3.0999999
4.61092 -0.62047702 3.06218
4.6870899 -0.520917 3.06218
4.5812702 -1.00509 3.0999999
4.5437899 -1.03968 3.0999999
4.5910802 -0.87039101 3.0999999
4.4730601 -0.249763 3.0999999
4.6964102 -0.59836 3.0999999
4.37675 -0.961757 3.0999999
4.4125199 -0.93035698 3.06218
4.4446301 -0.15690599 3.06218
4.54182 -0.146751 3.06218
4.4372702 -0.40655899 3.0999999
4.6405902 -0.46400699 3.06218
4.4650898 -1.11676 3.06218
4.4372201 -0.97533703 3.06218
4.3855801 -0.48671699 3.06218
4.3719301 -0.64707601 3.0999999
4.6912999 -1.01296 3.0999999
4.3396301 -0.33813301 3.06218
4.47683 -0.23656701 3.0999999
4.5643601 -0.96004403 3.0999999
4.7060299 -0.21154401 3.0999999
4.3199701 -1.06987 3.0999999
4.6612101 -0.31977701 3.0999999
4.6501999 -0.452613 3.06218
4.50526 -0.40998301 3.06218
4.5199599 -0.76205498 3.06218
4.64886 -0.38126001 3.06218
4.5150099 -0.29773 3.06218
4.3702302 -0.95574999 3.0999999
4.4440498 -0.41020501 3.0999999
4.5279598 -0.46218699 3.0999999
4.67346 -0.62242901 3.0999999
4.6988201 -0.30968601 3.0541601
4.4713702 -0.20634399 3.0999999
4.6890302 -1.05369 3.0999999
4.33531 -0.80066699 3.06218
4.6270399 -0.88046801 3.0999999
4.6757002 -0.41949499 3.06218
4.6988201 -0.66466302 3.0469799
4.5982599 -0.141582 3.06218
4.4348001 -0.87142801 3.06218
4.5890198 -0.70069802 3.06218
4.36165 -0.95698899 3.0999999
4.5504999 -0.223612 3.06218
4.4250102 -0.69923103 3.06218
4.4896102 -0.32464001 3.0999999
4.5018702 -0.94139999 3.06218
4.50139 -1.11497 3.0999999
4.3530002 -0.49604401 3.06218
4.6009302 -0.75326198 3.06218
4.4488201 -1.1194201 3.0999999
4.4252701 -0.68723297 3.06218
4.7161598 -1.07226 3.0999999
4.6815801 -0.53525102 3.06218
4.6511998 -0.46129099 3.06218
4.3271198 -1.06715 3.0999999
4.3130202 -0.88656199 3.0999999
4.3867202 -0.71800101 3.06218
4.4556699 -0.299577 3.06218
4.5671401 -0.90535003 3.0999999
4.3448901 -1.08957 3.0999999
4.4352598 -1.02353 3.0999999
4.6280198 -0.533822 3.06218
4.6339102 -0.202649 3.06218
4.6387601 -0.650769 3.06218
4.5133901 -1.12516 3.0999999
4.2905102 -0.57217997 3.0999999
4.58184 -1.1038899 3.06218
4.3042598 -1.03945 3.0999999
4.3445501 -0.94383198 3.06218
4.69208 -0.17764901 3.0999999
4.6159401 -0.24729501 3.0999999
4.44099 -0.776465 3.0999999
4.6988201 -0.301741 3.05334
4.4344501 -1.09489 3.0999999
4.37077 -0.80815101 3.06218
4.6957202 -0.90626597 3.0999999
4.4428 -0.25131801 3.06218
4.5533299 -0.89975899 3.0999999
4.55338 -1.00412 3.0999999
4.6413598 -0.15286399 3.06218
4.4520001 -1.06343 3.06218
4.3796902 -0.94060302 3.06218
4.4909 -0.38564599 3.06218
4.5459399 -0.56151199 3.0999999
4.4010501 -1.12309 3.06218
4.69701 -0.70926303 3.0999999
4.5450602 -0.23045 3.06218
4.6848001 -0.39175999 3.0999999
4.6439099 -0.93524098 3.0999999
4.5877199 -0.95889401 3.0999999
4.3172498 -0.52045 3.06218
4.2865601 -0.97200799 3.06218
4.4768 -0.24329101 3.0999999
4.57373 -1.1203001 3.06218
4.6680498 -0.29138499 3.0999999
4.6173401 -0.64815903 3.0999999
4.5335202 -0.982265 3.06218
4.6638899 -0.991566 3.0999999
4.4068499 -0.76300198 3.0999999
4.3697801 -0.521586 3.0999999
4.54073 -0.74728203 3.0999999
4.29742 -0.47301599 3.06218
4.4700799 -0.89358199 3.0999999
4.45678 -0.65547597 3.06218
4.5796299 -0.163027 3.0999999
4.56987 -0.60979903 3.06218
4.5731602 -0.93050402 3.0999999
4.6898098 -0.74310899 3.0999999
4.59409 -0.28032899 3.0999999
4.5072799 -1.04998 3.06218
4.4054599 -0.33135599 3.06218
4.5879002 -0.26001301 3.0999999
4.7112999 -0.77451903 3.0999999
4.6124501 -0.52849001 3.0999999
4.6687102 -0.48121601 3.0999999
4.7090302 -0.70372599 3.0999999
4.6286602 -0.634197 3.06218
4.48564 -0.414608 3.06218
4.4415898 -1 3.06218
4.3933001 -0.46477601 3.0999999
4.4668498 -1.06673 3.0999999
4.2926798 -0.20279901 3.0999999
4.7161198 -1.00644 3.0999999
4.7016602 -0.42561701 3.0999999
4.4478302 -0.79775298 3.06218
4.3763099 -0.75120097 3.06218
4.4549398 -1.10867 3.0999999
4.6819301 -0.695849 3.06218
4.41008 -0.54887098 3.0999999
4.3010502 -0.316533 3.06218
4.3833699 -0.32389 3.06218
4.2933898 -0.50071299 3.0999999
4.5504899 -0.248827 3.0999999
4.6117501 -0.32371899 3.06218
4.3527198 -0.89583403 3.0999999
4.50948 -0.646281 3.06218
4.5180602 -0.76134801 3.06218
4.6814098 -0.26294401 3.0999999
4.38099 -0.38201499 3.06218
4.66118 -0.205387 3.0999999
4.6369901 -0.351082 3.06218
4.68398 -0.34698299 3.0999999
4.6888399 -0.981749 3.0999999
4.5097699 -0.60737699 3.06218
4.3700199 -0.282377 3.06218
4.3828201 -0.88528699 3.06218
4.5946202 -0.56417298 3.0999999
4.6257 -0.87596297 3.06218
4.3882999 -0.86589903 3.06218
4.4098501 -0.81087399 3.06218
4.4130001 -0.40478 3.06218
4.4672699 -0.436407 3.06218
4.43606 -0.84495801 3.0999999
4.5097699 -0.60737699 3.06218
4.6462302 -0.83930397 3.0999999
4.5528698 -1.0248801 3.0999999
4.5900502 -0.96894401 3.06218
4.58991 -0.29543501 3.06218
4.2986102 -0.79640901 3.06218
4.3980699 -0.59630799 3.06218
4.34552 -0.50120097 3.06218
4.70122 -0.94151598 3.0999999
4.5827999 -0.99421901 3.06218
4.6533198 -0.77609998 3.06218
4.6612101 -0.31977701 3.0999999
4.5402098 -0.83872902 3.06218
4.59905 -0.87291998 3.06218
4.33531 -0.80066699 3.06218
4.6712098 -0.372228 3.0999999
4.4496999 -0.34586701 3.0999999
4.5022802 -0.87950402 3.0999999
4.3078399 -1.07918 3.0999999
4.61759 -0.85621601 3.0999999
4.3527198 -0.89583403 3.0999999
4.6420202 -0.548464 3.0999999
4.6988201 -0.167624 3.05585
4.57129 -1.09159 3.0999999
4.57373 -1.1203001 3.06218
4.5623698 -0.279506 3.0999999
4.5335202 -0.982265 3.06218
4.6402502 -0.23238499 3.06218
4.4643302 -1.10593 3.06218
4.4738002 -0.93591899 3.06218
4.4025402 -1.02079 3.06218
4.5309701 -0.277098 3.0999999
4.41153 -0.366779 3.0999999
4.34097 -0.87889999 3.06218
4.35533 -0.90765202 3.0999999
4.5469799 -0.147548 3.0999999
4.6167498 -0.80986899 3.0999999
4.6632299 -1.01068 3.0999999
4.6369901 -0.351082 3.06218
4.4888301 -0.331332 3.06218
4.6169901 -0.32395801 3.0999999
4.65698 -1.07356 3.0999999
4.5662699 -1.1102 3.0999999
4.6791401 -0.73567098 3.0999999
4.2863798 -1.07803 3.0999999
4.6322699 -0.47492099 3.06218
4.3417401 -0.304892 3.06218
4.4977598 -0.339093 3.06218
4.3914499 -0.74029601 3.0999999
4.6957502 -0.512357 3.0999999
4.6340599 -1.00388 3.0999999
4.6127501 -1.12953 3.06218
4.4026799 -0.57005697 3.0999999
4.3881202 -0.43078199 3.0999999
4.5766602 -0.89162999 3.06218
4.3663998 -1.1049 3.06218
4.3351302 -0.93317199 3.0999999
4.6540899 -0.952223 3.0999999
4.3081002 -1.0396301 3.06218
4.2939501 -0.17119201 3.06218
4.4553399 -0.327649 3.06218
4.6231198 -0.28891 3.06218
4.45857 -0.68048102 3.06218
4.3842402 -0.82978898 3.06218
4.3496099 -0.87342501 3.06218
4.3356199 -0.475748 3.0999999
4.56177 -1.1174001 3.06218
4.3473802 -0.67011702 3.06218
4.3190699 -1.12384 3.06218
4.6704998 -0.39277399 3.06218
4.4526901 -1.06429 3.0999999
4.6787901 -0.46229899 3.0999999
4.4525499 -0.923787 3.06218
4.4691 -1.00923 3.0999999
4.7091398 -0.277255 3.0999999
4.5963001 -0.240554 3.06218
4.50526 -0.40998301 3.06218
4.5997 -0.54733801 3.06218
4.5871201 -1.00669 3.0999999
4.4747 -0.135657 3.0999999
4.6530099 -0.286116 3.06218
4.2870798 -0.66542 3.06218
4.6987801 -0.629287 3.06218
4.6494498 -0.30511299 3.06218
4.4861698 -0.85589898 3.06218
4.5177898 -0.97031897 3.0999999
4.3455 -0.46079701 3.0999999
4.3901501 -0.715096 3.06218
4.56604 -0.98652202 3.06218
4.3962998 -0.85226601 3.06218
4.52528 -0.13970099 3.06218
4.44561 -1.08777 3.06218
4.5577302 -0.99322098 3.0999999
4.50809 -0.70605099 3.0999999
4.62042 -0.93909502 3.06218
4.6839399 -0.18151601 3.0999999
4.5039802 -0.398985 3.0999999
4.29179 -0.68079901 3.06218
4.59798 -0.13971099 3.06218
4.3611398 -0.51505798 3.0999999
4.59795 -0.68277299 3.06218
4.4430799 -0.818111 3.0999999
4.5817399 -0.85230303 3.06218
4.5759201 -0.70825303 3.0999999
4.3291798 -0.291352 3.0999999
4.6571898 -1.03765 3.0999999
4.47997 -0.85686302 3.0999999
4.6502199 -0.19709399 3.0999999
4.6394501 -0.67391801 3.06218
4.5102801 -0.34422699 3.06218
4.6524 -0.98951203 3.0999999
4.4390802 -1.02718 3.06218
4.3372502 -0.73911202 3.0999999
4.2990499 -0.822128 3.06218
4.5656199 -0.55690902 3.0999999
4.6490598 -0.75200099 3.0999999
4.4326701 -0.92849898 3.0999999
4.4737 -0.673702 3.0999999
4.66118 -0.205387 3.0999999
4.3078399 -1.07918 3.0999999
4.3994899 -0.28304699 3.06218
4.6921701 -0.16843399 3.0999999
4.65593 -1.10752 3.0999999
4.3373499 -0.56728798 3.0999999
4.4060502 -0.702591 3.0999999
4.5324402 -0.76505202 3.0999999
4.6138902 -0.77704698 3.06218
4.3333302 -1.11623 3.06218
4.45857 -0.68048102 3.06218
4.67765 -0.88225597 3.06218
4.5481901 -0.196208 3.06218
4.5201998 -0.442516 3.0999999
4.5022802 -0.87950402 3.0999999
4.6194201 -0.58385599 3.06218
4.5933399 -0.79570198 3.0999999
4.5060701 -0.442415 3.06218
4.5894399 -0.24055099 3.06218
4.4864502 -0.287074 3.0999999
4.3678398 -0.70309502 3.0999999
4.3857698 -0.56818902 3.06218
4.6100402 -0.693259 3.0999999
4.3326502 -0.868065 3.0999999
4.4086699 -0.37386301 3.06218
4.415 -0.84661502 3.0999999
4.6387601 -0.650769 3.06218
4.3067198 -0.53021598 3.0999999
4.5201998 -0.442516 3.0999999
4.7127299 -0.93009698 3.0999999
4.5546498 -0.71724498 3.0999999
4.3213301 -0.802665 3.0999999
4.6271901 -0.68511802 3.06218
4.3196902 -1.00472 3.0999999
4.6988201 -0.42856899 3.06163
4.6988201 -1.03916 3.05478
4.2942801 -0.14624 3.0999999
4.3685699 -0.54818499 3.0999999
4.4349098 -0.60472202 3.06218
4.51858 -0.13485201 3.06218
4.4054599 -0.33135599 3.06218
4.5344501 -0.61965197 3.06218
4.2976098 -0.503833 3.0999999
4.4103999 -0.88161403 3.06218
4.5420499 -1.00696 3.06218
4.5457201 -0.71219301 3.0999999
4.4551802 -0.172757 3.0999999
4.6853299 -0.79672903 3.06218
4.4397202 -0.98661602 3.06218
4.6599798 -0.82614398 3.06218
4.3965802 -0.50288701 3.06218
4.4895301 -0.96250898 3.06218
4.4478302 -0.79775298 3.06218
4.5706401 -0.64410102 3.0999999
4.30896 -0.17377 3.06218
4.3828702 -0.85654402 3.06218
4.5784602 -0.208804 3.0999999
4.4558702 -0.84151101 3.0999999
4.3050098 -0.93112701 3.06218
4.5173101 -0.459984 3.06218
4.5645599 -0.25048801 3.0999999
4.5711398 -0.172158 3.06218
4.45225 -0.252951 3.06218
4.3176799 -0.98151702 3.06218
4.3915801 -0.39052501 3.06218
4.6806798 -0.42970699 3.0999999
4.5504599 -0.33131 3.06218
4.5964499 -0.237242 3.06218
4.3811998 -0.75568199 3.06218
4.54737 -1.00135 3.06218
4.4766798 -0.234541 3.0999999
4.32407 -0.92810798 3.06218
4.7156301 -0.59903598 3.0999999
4.60219 -0.306501 3.06218
4.7140899 -0.43425101 3.0999999
4.7105899 -1.0175 3.0999999
4.4289799 -0.359676 3.06218
4.57129 -1.09159 3.0999999
4.4891601 -0.78807598 3.0999999
4.6166201 -1.04378 3.0999999
4.3799 -0.59711599 3.06218
4.6323299 -1.09272 3.06218
4.3536301 -1.0799 3.0999999
4.41115 -0.467024 3.06218
4.4870601 -1.00089 3.0999999
4.2869301 -0.14993501 3.0999999
4.6412301 -0.805601 3.0999999
4.5756402 -0.55417597 3.0999999
4.4580402 -1.09896 3.06218
4.50249 -1.0766799 3.0999999
4.3185802 -0.144153 3.06218
4.3108201 -0.137743 3.06218
4.5002098 -0.69661599 3.06218
4.4688401 -0.83423698 3.0999999
4.3130002 -1.04257 3.06218
4.4559398 -0.87146699 3.0999999
4.3552899 -0.30217001 3.06218
4.2954102 -0.56135303 3.0999999
4.3343701 -0.623083 3.06218
4.6713099 -0.18614 3.0999999
4.52068 -0.667009 3.06218
4.3131299 -0.889238 3.06218
4.3145599 -0.79637003 3.06218
4.4706802 -1.08676 3.0999999
4.7165699 -0.248376 3.0999999
4.6865101 -0.71598601 3.06218
4.38519 -0.93413299 3.0999999
4.4604101 -0.180492 3.06218
4.4609299 -0.67813802 3.0999999
4.5879698 -0.54189801 3.0999999
4.51232 -0.39607999 3.06218
4.6440401 -0.86110198 3.06218
4.60111 -0.72468299 3.0999999
4.6034698 -0.817761 3.06218
4.3845501 -0.90736097 3.06218
4.60075 -0.216325 3.0999999
4.3136301 -0.56229103 3.06218
4.63624 -0.78175199 3.06218
4.6649199 0.34130901 3.0999999
4.5531802 0.60404801 3.0999999
4.6879001 0.138445 3.0999999
4.5578799 0.097576402 3.06218
4.5044298 0.094103299 3.06218
4.6490698 0.57448602 3.06218
4.4521799 0.0992532 3.0999999
4.4493299 -0.088335 3.0999999
4.5815201 0.070793897 3.0999999
4.60883 0.48657599 3.0999999
4.4307699 0.489319 3.0999999
4.48173 0.83575201 3.06218
4.60355 -0.04287 3.0999999
4.3236699 0.64237303 3.0999999
4.3920398 0.47484699 3.0999999
4.3293099 0.68630499 3.0999999
4.6872802 0.41033399 3.0999999
4.40311 0.45045799 3.06218
4.7045698 0.66490901 3.0999999
4.4459801 -0.106157 3.06218
4.5678401 0.705055 3.06218
4.3177099 0.22335 3.06218
4.41293 0.56723899 3.06218
4.4194198 -0.0128169 3.0999999
4.4707298 0.196997 3.06218
4.5138898 0.178159 3.0999999
4.5987201 0.191401 3.06218
4.4611301 0.80682898 3.06218
4.5964398 0.135066 3.0999999
4.5184498 0.42609701 3.0999999
4.5079999 -0.127995 3.06218
4.4501801 0.13335299 3.06218
4.3576102 0.70192403 3.0999999
4.3954201 0.80815899 3.0999999
4.39534 0.169662 3.06218
4.3937101 0.803523 3.0999999
4.2989898 0.25253001 3.06218
4.6173501 0.701653 3.06218
4.37854 0.496126 3.06218
4.58426 0.39542899 3.06218
4.4715199 0.00335383 3.06218
4.4873199 0.0327911 3.06218
4.6786499 0.026452299 3.06218
4.3853402 0.404908 3.0999999
4.5180001 -0.0415635 3.06218
4.55933 -0.047397099 3.06218
4.4682002 0.21507099 3.06218
4.42941 0.51667398 3.06218
4.6988201 0.58658999 3.0495601
4.3352199 0.243572 3.0999999
4.5883999 0.00971389 3.0999999
4.54986 0.72653002 3.0999999
4.56743 0.276061 3.0999999
4.5785999 0.069937699 3.0999999
4.4221601 0.37308699 3.06218
4.5146999 0.22530299 3.06218
4.5720301 0.77259201 3.06218
4.57686 0.62385398 3.0999999
4.5863299 0.86293399 3.0999999
4.36516 0.53049397 3.0999999
4.3006001 0.566176 3.06218
4.4997001 -0.117853 3.0999999
4.3407202 0.638717 3.06218
4.3541498 -0.107745 3.06218
4.2911601 0.403934 3.06218
4.6956301 0.69637799 3.0999999
4.7101302 0.100207 3.0999999
4.4449201 0.53110999 3.0999999
4.5871701 0.42368299 3.06218
4.6262002 0.242035 3.0999999
4.6931 0.052841201 3.06218
4.6424499 0.35216901 3.0999999
4.5237098 -0.0216641 3.06218
4.5127501 0.171857 3.06218
4.3316202 0.040023901 3.06218
4.6380701 0.66817302 3.06218
4.4303498 0.45324099 3.0999999
4.3460398 0.60467798 3.0999999
4.67906 0.0095768003 3.06218
4.4752002 0.170348 3.0999999
4.4300299 0.122039 3.0999999
4.6189299 -0.096163496 3.06218
4.36588 0.67584097 3.0999999
4.5745902 0.43773001 3.0999999
4.3572001 0.62487203 3.0999999
4.6128998 0.70936799 3.06218
4.3432002 0.70247298 3.0999999
4.3992 0.60864198 3.0999999
4.6933699 0.78658801 3.0999999
4.66923 0.120569 3.06218
4.4698501 0.37938499 3.06218
4.5412698 0.45503199 3.0999999
4.6328502 0.73204798 3.0999999
4.68576 0.78125298 3.06218
4.5661502 0.70146602 3.0999999
4.7134399 0.096521899 3.0999999
4.3621402 0.26619601 3.06218
4.3357 0.168827 3.0999999
4.4600101 -0.053124201 3.0999999
4.4025202 0.26881799 3.0999999
4.3404999 0.74691802 3.0999999
4.6177201 0.52318102 3.0999999
4.3469 0.36281601 3.06218
4.6192598 -0.128883 3.06218
4.6695299 0.539258 3.0999999
4.4023499 0.77097303 3.06218
4.47158 0.247583 3.06218
4.53332 0.244766 3.06218
4.6988201 0.52651501 3.0573599
4.3346 0.64846802 3.0999999
4.70611 0.84237099 3.0999999
4.42308 -0.0057849898 3.06218
4.5766702 0.30292901 3.06218
4.68047 0.74018502 3.06218
4.4770899 0.850164 3.06218
4.6125598 0.62118202 3.0999999
4.6275301 0.0562727 3.0999999
4.6192598 -0.128883 3.06218
4.3374901 0.121878 3.0999999
4.4328599 0.572896 3.06218
4.4901299 0.60051501 3.06218
4.5088601 0.25336799 3.0999999
4.42067 -0.051515799 3.06218
4.49615 0.191122 3.0999999
4.3238502 0.079300202 3.0999999
4.3340502 0.36807701 3.0999999
4.44243 0.086441301 3.0999999
4.65136 -0.030911701 3.06218
4.36131 0.407873 3.0999999
4.4962001 0.583718 3.06218
4.4927802 0.68017203 3.06218
4.6262002 0.242035 3.0999999
4.3837199 0.68482101 3.06218
4.6988201 -0.104429 3.0510499
4.6364398 0.56328601 3.06218
4.3585901 0.65795302 3.0999999
4.61622 0.594419 3.0999999
4.4569502 0.64283103 3.0999999
4.4345102 0.538939 3.06218
4.6444702 0.72177398 3.06218
4.2968202 0.44024101 3.06218
4.6673698 0.52240402 3.0999999
4.3254199 0.13373899 3.0999999
4.3255301 0.0529854 3.06218
4.69415 0.76302499 3.0999999
4.3477302 0.39338601 3.0999999
4.5364699 0.78694803 3.0999999
4.4994302 0.79492098 3.06218
4.4515901 0.56558597 3.06218
4.5683298 0.66428798 3.0999999
4.55867 0.79628497 3.0999999
4.3621898 0.32227701 3.0999999
4.5194402 0.71740597 3.06218
4.37536 0.58880901 3.0999999
4.62392 0.18347 3.06218
4.4176002 0.45382401 3.06218
4.6756601 -0.078140303 3.0999999
4.2957602 0.84701598 3.0999999
4.45889 0.187374 3.06218
4.5752301 0.74701101 3.06218
4.2915101 0.31349599 3.06218
4.63763 0.180829 3.06218
4.60816 0.75164801 3.0999999
4.5883498 0.63667101 3.0999999
4.6988201 0.43896201 3.0488601
4.4640498 -0.0122497 3.0999999
4.3793302 -0.102797 3.06218
4.2893801 0.095833801 3.06218
4.3297501 0.444666 3.0999999
4.6805902 0.60945302 3.06218
4.5833998 0.66585201 3.0999999
4.3612299 0.847646 3.06218
4.54636 -0.119216 3.06218
4.3747401 0.492477 3.06218
4.42308 -0.0057849898 3.06218
4.60816 0.75164801 3.0999999
4.4812999 0.48108 3.0999999
4.48805 0.659127 3.0999999
4.6444702 0.72177398 3.06218
4.3505902 0.12584101 3.06218
4.4328599 0.572896 3.06218
4.3720999 0.30267501 3.06218
4.6551499 0.0085678101 3.0999999
4.5546999 0.59173399 3.06218
4.57903 0.033040501 3.0999999
4.2936201 0.557257 3.0999999
4.6907201 -0.0307527 3.0999999
4.5725598 0.084325597 3.0999999
4.4060302 -0.0066749998 3.0999999
4.4194198 -0.0128169 3.0999999
4.6988201 0.53637397 3.04355
4.5724702 0.76486301 3.0999999
4.6873102 0.51332802 3.06218
4.6869702 0.736507 3.06218
4.3210702 0.75218803 3.06218
4.3257599 0.37384301 3.0999999
4.6284199 0.50209999 3.06218
4.3353701 0.177276 3.0999999
4.68471 0.44706401 3.06218
4.4906902 -0.0435238 3.06218
4.3978 0.85472 3.0999999
4.4491901 0.41577399 3.06218
4.5915399 0.44168201 3.06218
4.3313298 0.212947 3.0999999
4.3861399 0.67862999 3.0999999
4.50701 0.76072699 3.0999999
4.4632201 0.848248 3.06218
4.5739198 0.010936 3.0999999
4.4579902 0.75841498 3.0999999
4.6458902 0.018959999 3.0999999
4.5703502 0.360861 3.06218
4.5815201 0.070793897 3.0999999
4.3839698 0.490455 3.06218
4.6575198 0.25437599 3.0999999
4.6378198 0.116388 3.06218
4.6192598 -0.128883 3.06218
4.5963402 0.458067 3.06218
4.5707102 0.369912 3.0999999
4.4103298 0.31449899 3.0999999
4.3238502 0.079300202 3.0999999
4.5011101 0.47247401 3.0999999
4.6160402 0.59319198 3.0999999
4.46702 0.30655399 3.0999999
4.5932798 0.097876802 3.06218
4.3236299 0.12716 3.0999999
4.62538 0.217494 3.06218
4.6248398 0.80965602 3.06218
4.4941201 -0.0505834 3.06218
4.4818101 0.229882 3.0999999
4.5932798 0.097876802 3.06218
4.4999499 0.43231401 3.0999999
4.6451201 0.0061693201 3.0999999
4.6988201 0.85225201 3.05863
4.36514 0.77286398 3.06218
4.36443 0.83249497 3.0999999
4.5746598 0.24164499 3.0999999
4.6984701 0.81684703 3.0999999
4.4139199 0.678608 3.0999999
4.62569 0.222928 3.0999999
4.2941298 0.28859001 3.0999999
4.6274099 0.68110198 3.06218
4.4153199 0.770886 3.06218
4.4337101 -0.053203098 3.06218
4.4909301 0.157511 3.06218
4.30337 0.408959 3.06218
4.6675301 -0.00099301303 3.0999999
4.4331298 0.800372 3.0999999
4.4176302 0.86050302 3.06218
4.54528 0.63388401 3.06218
4.58249 0.48426899 3.0999999
4.5880699 0.143534 3.06218
4.39184 0.076487102 3.06218
4.5676699 0.170223 3.0999999
4.38375 0.74213302 3.0999999
4.3231101 0.55448198 3.06218
4.4078498 0.142975 3.0999999
4.71422 0.0294495 3.0999999
4.4864802 0.169689 3.0999999
4.4560099 -0.043788899 3.06218
4.6366301 -0.076219298 3.06218
4.3096499 0.23406801 3.06218
4.3368001 0.77419001 3.06218
4.5562 -0.046569299 3.0999999
4.5021 0.25455299 3.06218
4.4825702 0.046140201 3.06218
4.6970601 0.77306199 3.06218
4.7016301 0.683034 3.0999999
4.3146601 0.70181602 3.0999999
4.6441498 0.62943101 3.06218
4.4838099 0.494872 3.0999999
4.3477302 0.39338601 3.0999999
4.6412401 0.17633601 3.0999999
4.5813198 0.52240801 3.0999999
4.6210198 0.17092299 3.06218
4.42207 0.076604798 3.06218
4.6560202 -0.0456076 3.06218
4.63234 0.66566402 3.0999999
4.6262102 0.59849799 3.06218
4.5085101 0.41182399 3.06218
4.57445 0.36638299 3.0999999
4.3288698 0.356812 3.0999999
4.2869 0.52629298 3.06218
4.586 0.60061902 3.0999999
4.6960902 0.37762299 3.0999999
4.6767302 0.41506001 3.0999999
4.5255198 0.295286 3.0999999
4.3385901 0.82393003 3.06218
4.4498701 0.65544802 3.0999999
4.6022902 0.112134 3.06218
4.69349 0.72622299 3.06218
4.4623699 0.291639 3.06218
4.4391799 0.209884 3.06218
4.5681601 0.41625899 3.0999999
4.3239102 0.245726 3.06218
4.2869 0.52629298 3.06218
4.3663101 0.847691 3.06218
4.5592699 0.454979 3.06218
4.5595298 0.65026098 3.0999999
4.5424299 0.32727799 3.06218
4.4407501 0.065807298 3.06218
4.6708202 -0.0514591 3.06218
4.66466 -0.0109105 3.06218
4.57903 0.033040501 3.0999999
4.3652701 0.32140201 3.0999999
4.6381602 0.14533 3.06218
4.6985698 0.0061979298 3.0999999
4.3973298 -0.099827997 3.06218
4.5704799 -0.068130299 3.0999999
4.6048498 0.240457 3.06218
4.5310998 0.20517699 3.06218
4.4430099 -0.046733402 3.0999999
4.3562102 0.27316001 3.0999999
4.46487 0.30655599 3.06218
4.66011 -0.074940696 3.06218
4.6767302 0.41506001 3.0999999
4.6571898 0.189523 3.06218
4.6729002 0.777035 3.0999999
4.7063398 0.71069598 3.0999999
4.6407099 0.369519 3.0999999
4.5513501 0.387633 3.06218
4.65484 0.84082597 3.06218
4.4753499 0.32306999 3.06218
4.46523 0.27646801 3.06218
4.6988201 0.0239863 3.0497999
4.6038299 0.12875099 3.0999999
4.4604802 -0.12842301 3.0999999
4.5184498 0.42609701 3.0999999
4.5587001 0.095064402 3.06218
4.41257 0.61876798 3.06218
4.4018302 0.40353 3.0999999
4.3395801 -0.11993 3.06218
4.39746 0.70809102 3.0999999
4.4161201 0.16902 3.06218
4.51051 0.412157 3.0999999
4.6044502 0.14357901 3.06218
4.33429 0.49443299 3.06218
4.5465298 0.580585 3.06218
4.3937502 -0.0371974 3.0999999
4.3424902 0.71986997 3.0999999
4.52918 0.50746697 3.0999999
4.36731 0.41728401 3.0999999
4.64535 0.22875001 3.06218
4.6709199 0.40352201 3.06218
4.6613598 0.58821398 3.06218
4.51756 0.60327297 3.06218
4.4215102 -0.097538903 3.06218
4.6568098 0.530415 3.0999999
4.6988201 -0.094507501 3.04862
4.41292 0.19073901 3.0999999
4.5890999 -0.066789903 3.06218
4.5363402 0.335778 3.0999999
4.39747 0.86439902 3.06218
4.5863299 0.86293399 3.0999999
4.4236002 0.63668102 3.06218
4.3505201 0.45270601 3.06218
4.5901999 0.55206198 3.0999999
4.5823102 0.493527 3.06218
4.6968899 0.143519 3.06218
4.6298299 0.273581 3.0999999
4.7072001 0.55656999 3.0999999
4.6554298 0.042823602 3.06218
4.3292799 0.44577301 3.0999999
4.6638098 0.644692 3.0999999
4.49928 0.75325799 3.06218
4.6553702 0.47205299 3.06218
4.6931701 0.73553503 3.0999999
4.4912801 0.85870999 3.06218
4.5608602 0.85284901 3.0999999
4.4680901 0.72062999 3.0999999
4.6629901 0.79975897 3.06218
4.6830001 0.65033001 3.06218
4.4898 0.216682 3.0999999
4.3441601 0.093121096 3.0999999
4.4864802 0.169689 3.0999999
4.55193 0.71853697 3.06218
4.6603899 0.48655599 3.06218
4.3236699 0.64237303 3.0999999
4.44519 0.70280898 3.0999999
4.5481901 0.26581299 3.0999999
4.4316301 0.20310999 3.06218
4.6834998 0.53935999 3.0999999
4.6087399 -0.081017002 3.06218
4.67202 0.15441699 3.06218
4.3747501 0.55433601 3.0999999
4.3043599 0.706321 3.06218
4.6890898 0.72330803 3.0999999
4.5914001 0.83345902 3.0999999
4.4128199 0.30265999 3.0999999
4.5654001 0.0170426 3.0999999
4.3831902 0.325748 3.0999999
4.5935001 0.141582 3.06218
4.5278101 0.84034401 3.06218
4.3677001 0.40258101 3.06218
4.3095798 0.094387002 3.06218
4.4888201 0.0859375 3.06218
4.3959298 0.111743 3.06218
4.46561 0.1892 3.06218
4.69591 0.672925 3.06218
4.5145402 0.040711898 3.06218
4.4594002 0.180024 3.0999999
4.5246501 0.62433302 3.0999999
4.4407501 0.065807298 3.06218
4.53585 0.29367399 3.0999999
4.6988201 0.748788 3.05896
4.6701398 0.70373303 3.0999999
4.3204699 0.59662902 3.0999999
4.5036402 0.61619902 3.0999999
4.3516102 0.27605301 3.06218
4.4818101 0.229882 3.0999999
4.5408201 0.35973099 3.06218
4.6698298 -0.022336001 3.06218
4.7005501 0.83914602 3.0999999
4.6032 0.025493599 3.0999999
4.4144602 0.697667 3.06218
4.5629702 0.59079701 3.06218
4.3297501 0.444666 3.0999999
4.5235901 0.72985399 3.06218
4.5036402 0.61619902 3.0999999
4.3120699 0.27216601 3.0999999
4.68957 0.67904902 3.06218
4.4924502 0.379868 3.06218
4.43782 0.70541 3.06218
4.3111601 0.25975499 3.06218
4.2946701 0.238994 3.06218
4.4929199 0.710513 3.06218
4.52249 0.20643599 3.0999999
4.5964398 0.135066 3.0999999
4.6682 -0.082333602 3.06218
4.4812999 0.48108 3.0999999
4.6289101 0.23096099 3.0999999
4.5279698 0.73001701 3.06218
4.3123298 0.86098802 3.06218
4.42735 0.61721301 3.06218
4.5964398 0.135066 3.0999999
4.4363599 -0.069817103 3.06218
4.3456702 0.53637397 3.0999999
4.6859002 0.158714 3.06218
4.5584302 0.53464699 3.0999999
4.3881202 0.0972929 3.0999999
4.29036 0.381387 3.06218
4.53194 0.73876399 3.06218
4.6443601 0.42621899 3.0999999
4.5181398 0.39021 3.06218
4.4079299 -0.084336303 3.06218
4.53128 0.056618899 3.0999999
4.6627002 0.74995202 3.06218
4.3146801 0.083710402 3.0999999
4.5420499 0.54734498 3.06218
4.67138 0.53478599 3.06218
4.5812201 0.41275701 3.0999999
4.6387401 0.749479 3.0999999
4.3231802 0.53663599 3.0999999
4.3749099 0.69498497 3.06218
4.30199 0.243782 3.0999999
4.6943698 0.68107897 3.06218
4.4256902 0.43956199 3.0999999
4.3069501 0.82617998 3.0999999
4.61903 0.0048074699 3.06218
4.65136 -0.030911701 3.06218
4.37854 0.496126 3.06218
4.3017602 0.39636201 3.0999999
4.6126099 -0.120296 3.06218
4.5490699 -0.089080103 3.0999999
4.4946299 0.19484399 3.0999999
4.4307699 0.489319 3.0999999
4.5966401 0.00260377 3.0999999
4.4184999 0.217958 3.0999999
4.3298302 0.56313801 3.06218
4.3746901 0.51736099 3.06218
4.4597201 0.054933101 3.0999999
4.50072 0.20779601 3.0999999
4.5838199 0.040831301 3.06218
4.67805 0.273983 3.0999999
4.2882199 0.68380702 3.06218
4.4623399 0.401797 3.0999999
4.6582999 -0.065794699 3.06218
4.60149 0.78595299 3.0999999
4.6612902 0.84030002 3.06218
4.6761699 0.26759401 3.0999999
4.29983 0.39672601 3.06218
4.6679401 0.75195998 3.0999999
4.35675 0.62520099 3.06218
4.3695998 0.13707399 3.06218
4.6461802 -0.0022358899 3.0999999
4.6696501 0.83497202 3.0999999
4.5068898 -0.068678103 3.0999999
4.3867698 0.793127 3.06218
4.49859 0.28921899 3.0999999
4.6767302 0.41506001 3.0999999
4.5627999 0.67704201 3.06218
4.39782 0.28345901 3.0999999
4.4227099 0.84695798 3.0999999
4.54317 0.70686197 3.0999999
4.7144499 0.81920999 3.0999999
4.3757501 0.229525 3.0999999
4.29357 0.49415401 3.06218
4.4459801 -0.106157 3.06218
4.3158798 -0.108324 3.06218
4.4721298 0.074435197 3.0999999
4.5943999 0.650397 3.06218
4.6241698 0.190531 3.0999999
4.5513101 0.43925399 3.06218
4.6770701 0.543639 3.06218
4.4856901 0.17810699 3.06218
4.43928 0.142313 3.06218
4.3426399 0.4337 3.06218
4.4031 0.399836 3.0999999
4.4538598 0.67320102 3.06218
4.38059 0.131644 3.06218
4.4678898 0.51764399 3.06218
4.3837199 0.68482101 3.06218
4.5880699 0.297313 3.06218
4.6547399 0.236727 3.06218
4.6041002 0.182643 3.0999999
4.2969298 0.70831698 3.0999999
4.6385298 0.50197202 3.0999999
4.3526902 0.75066799 3.06218
4.6988201 0.0069510899 3.0427301
4.6989002 0.58043802 3.0999999
4.6318898 0.0250363 3.06218
4.4193401 -0.0758719 3.0999999
4.5575199 0.471264 3.0999999
4.44836 0.39689299 3.06218
4.57271 0.064657897 3.06218
4.40131 0.187895 3.06218
4.4193401 -0.0758719 3.0999999
4.42238 0.122008 3.0999999
4.4570699 0.66520703 3.06218
4.41396 -0.0097265197 3.0999999
4.5831299 0.541996 3.06218
4.3120098 0.0351713 3.0999999
4.67805 0.273983 3.0999999
4.3847198 0.218832 3.0999999
4.47333 0.70208001 3.06218
4.5831299 0.541996 3.06218
4.55022 0.355618 3.06218
4.4641199 0.61757702 3.06218
4.5696602 0.42086399 3.0999999
4.37184 0.66505498 3.0999999
4.4633498 0.68112099 3.0999999
4.6321001 0.200564 3.0999999
4.49719 0.74760199 3.06218
4.3460598 0.78769201 3.06218
4.5562 -0.046569299 3.0999999
4.5018101 0.105571 3.0999999
4.49719 0.74760199 3.06218
4.5366902 0.41160199 3.0999999
4.6271801 0.70040101 3.0999999
4.6047702 0.64842498 3.06218
4.3992 0.60864198 3.0999999
4.58463 0.55149198 3.06218
4.6264 0.79198003 3.0999999
4.58705 0.71830201 3.06218
4.3297501 0.444666 3.0999999
4.5778799 0.29493901 3.0999999
4.32864 0.50972003 3.06218
4.4494801 0.84161103 3.06218
4.6275301 0.0562727 3.0999999
4.4893298 0.75915003 3.0999999
4.3665099 0.35185099 3.06218
4.6879101 -0.052448299 3.06218
4.4450002 0.56698799 3.06218
4.5992298 0.112171 3.06218
4.4777899 0.40326101 3.06218
4.4407301 0.85758799 3.0999999
4.44172 0.26688001 3.0999999
4.4022102 0.112556 3.06218
4.6275601 -0.086180702 3.0999999
4.6745501 0.10983 3.06218
4.4075298 0.736628 3.06218
4.3001399 0.52747202 3.06218
4.38099 0.84414703 3.0999999
4.4244399 0.51775002 3.06218
4.6553898 0.80884498 3.06218
4.67134 0.64098197 3.0999999
4.6988201 0.166519 3.05985
4.6749201 0.77450597 3.06218
4.51754 0.77928501 3.0999999
4.6465101 0.74288601 3.06218
4.3551502 0.57754201 3.0999999
4.4166098 0.85215098 3.0999999
4.4558501 0.085112803 3.0999999
4.3082399 0.30965599 3.06218
4.3077302 0.80762202 3.0999999
4.4143801 0.84029299 3.0999999
4.5089798 0.037074301 3.0999999
4.5676699 0.170223 3.0999999
4.6321001 0.200564 3.0999999
4.4493699 -0.015466 3.0999999
4.6830001 0.65033001 3.06218
4.5636101 0.070066199 3.06218
4.5608401 0.13868999 3.06218
4.6298299 0.273581 3.0999999
4.4540401 0.75613397 3.06218
4.7011399 -0.019591801 3.0999999
4.3568902 0.81419998 3.0999999
4.6905098 0.624466 3.0999999
4.5871902 0.75207198 3.06218
4.51754 0.77928501 3.0999999
4.4516602 0.172802 3.0999999
4.3691702 0.82325101 3.06218
4.63239 -0.0148559 3.06218
4.6988201 0.397232 3.0579801
4.6247201 0.095969699 3.06218
4.4921398 0.174952 3.0999999
4.6205401 0.087613098 3.06218
4.4438601 0.81516802 3.0999999
4.6245298 0.459701 3.06218
4.33253 0.51783299 3.0999999
4.4348698 0.79330301 3.0999999
4.5036001 0.72360098 3.0999999
4.4864898 -0.096929803 3.06218
4.4310899 0.30099499 3.0999999
4.34413 0.111187 3.0999999
4.3989201 0.48271301 3.0999999
4.2866802 0.18157101 3.06218
4.3603001 0.790932 3.0999999
4.4934201 0.83099902 3.06218
4.6325798 0.191651 3.0999999
4.58851 0.32165599 3.06218
4.5991001 0.412781 3.06218
4.4037499 0.72885501 3.0999999
4.5750999 0.256394 3.06218
4.4812102 0.86577201 3.0999999
4.3941102 0.094060898 3.0999999
4.3775501 0.196549 3.06218
4.5408201 0.35973099 3.06218
4.67659 0.216442 3.06218
4.69275 -0.12816299 3.06218
4.4999499 0.43231401 3.0999999
4.5026102 0.54432797 3.06218
4.5267301 0.398516 3.0999999
4.4847999 0.303267 3.06218
4.5187602 0.42612201 3.06218
4.6585598 0.62436801 3.06218
4.6554298 0.042823602 3.06218
4.3313298 0.212947 3.0999999
4.4485798 0.092885502 3.06218
4.6241698 0.190531 3.0999999
4.2981601 0.84461403 3.0999999
4.5662298 0.58703297 3.0999999
4.5507798 0.40387201 3.06218
4.6947799 0.541713 3.0999999
4.54111 -0.12717199 3.0999999
4.6370802 0.85966903 3.0999999
4.6465001 0.26701999 3.0999999
4.3026299 -0.128831 3.06218
4.5728102 0.018061601 3.06218
4.4886198 0.74754798 3.06218
4.6988201 0.0233247 3.0611601
4.4247198 0.321585 3.06218
4.4393401 0.37400901 3.0999999
4.42735 0.61721301 3.06218
4.4272599 -0.0247915 3.06218
4.49576 0.58249903 3.0999999
4.5315099 0.059191201 3.0999999
4.4821601 0.30484 3.0999999
4.4010701 -0.085398003 3.06218
4.6087098 0.68405998 3.06218
4.6889601 -0.111474 3.06218
4.3224101 0.62017298 3.06218
4.3390799 0.17809001 3.0999999
4.4881701 0.331227 3.06218
4.2907801 0.84408301 3.06218
4.55937 0.0537856 3.06218
4.6701899 0.82354701 3.0999999
4.4261599 0.36799401 3.06218
4.4098001 0.40686601 3.0999999
4.5021 0.25455299 3.06218
4.6254101 0.82001102 3.06218
4.4306898 0.467978 3.06218
4.4247198 0.321585 3.06218
4.4579401 0.0423682 3.0999999
4.4680901 0.72062999 3.0999999
4.5713301 -0.0975409 3.06218
4.4783702 0.671242 3.0999999
4.4569101 0.77833903 3.06218
4.39046 0.67220497 3.0999999
4.5812201 0.41275701 3.0999999
4.6349702 0.28651699 3.0999999
4.6281099 0.65121198 3.0999999
4.5420499 0.54734498 3.06218
4.3123298 0.86098802 3.06218
4.5936399 0.063022397 3.0999999
4.5233798 0.0068352199 3.06218
4.4193401 -0.0758719 3.0999999
4.2969298 0.70831698 3.0999999
4.4147801 0.100069 3.06218
4.5099602 0.53100097 3.06218
4.4137802 0.20044801 3.06218
4.4163899 0.353275 3.0999999
4.68681 0.0094385101 3.0999999
4.5766201 -0.079286799 3.0999999
4.3372698 0.41658601 3.0999999
4.6421599 0.33134601 3.0999999
4.5922198 0.40315101 3.06218
4.44805 -0.098607801 3.0999999
4.3410702 0.048718199 3.06218
4.6443601 0.42621899 3.0999999
4.2882199 0.68380702 3.06218
4.56179 0.47837999 3.06218
4.4746799 0.58768201 3.0999999
4.40728 0.84404498 3.06218
4.4559102 0.64357102 3.0999999
4.3951001 0.81781399 3.0999999
4.4125199 0.015921799 3.06218
4.4182501 0.61033797 3.0999999
4.6988201 0.83076 3.0496199
4.6973 0.18650299 3.06218
4.4493999 0.86027199 3.06218
4.4559598 0.023994399 3.0999999
4.30969 0.67160702 3.0999999
4.4549499 -0.053261802 3.06218
4.4381099 0.115699 3.06218
4.3606 0.460435 3.06218
4.6387401 0.749479 3.0999999
4.49576 -0.0563397 3.06218
4.37043 0.50185299 3.0999999
4.4641199 -0.052376699 3.06218
4.6901202 0.64048898 3.0999999
4.4176502 -0.113536 3.06218
4.48666 0.219823 3.06218
4.5901699 0.114621 3.0999999
4.5851402 -0.025061799 3.06218
4.4348102 0.26295 3.06218
4.7105298 0.48432401 3.0999999
4.58851 0.32165599 3.06218
4.5455899 0.210343 3.06218
4.35919 0.26930901 3.06218
4.6665301 0.21251599 3.0999999
4.48457 0.58644199 3.0999999
4.3748002 0.52190697 3.0999999
4.6841402 0.81351 3.0999999
4.6988201 0.57726401 3.06005
4.4203401 0.40104699 3.06218
4.4260702 0.72477299 3.06218
4.49125 0.469118 3.06218
4.6704702 0.093617 3.06218
4.4584699 0.68935198 3.0999999
4.4262099 -0.108899 3.0999999
4.4496799 0.724558 3.0999999
4.48738 0.0244112 3.06218
4.56213 0.80148703 3.0999999
4.49576 0.58249903 3.0999999
4.4456902 0.73384798 3.06218
4.4920902 0.36878401 3.0999999
4.3726101 0.70493299 3.06218
4.4981799 0.427663 3.0999999
4.5016999 0.30966201 3.06218
4.6306 0.78806001 3.06218
4.5100298 0.29345101 3.06218
4.48562 -0.084098101 3.06218
4.33671 0.44502199 3.06218
4.6851902 0.46134001 3.06218
4.7136502 0.27929401 3.0999999
4.4549799 0.132229 3.0999999
4.3045602 0.63299298 3.06218
4.6784902 0.053078201 3.06218
4.5770502 0.51310098 3.06218
4.3937101 0.803523 3.0999999
4.4739599 0.831936 3.06218
4.63587 0.134883 3.06218
4.47821 0.22706699 3.06218
4.4696598 0.74680799 3.0999999
4.7102399 -0.0194051 3.0999999
4.2862101 0.71541101 3.06218
4.6554298 0.042823602 3.06218
4.4053202 0.544451 3.0999999
4.6988201 0.67624402 3.0483699
4.55512 -0.050291099 3.06218
4.6247201 0.095969699 3.06218
4.31038 0.61852002 3.06218
4.3567801 0.86581999 3.06218
4.5211802 0.0151744 3.06218
4.5975099 -0.064462401 3.0999999
4.28686 0.075183198 3.06218
4.68291 0.63586801 3.0999999
4.5217299 0.35740399 3.06218
4.28686 0.075183198 3.06218
4.6988201 0.120955 3.04737
4.5854998 0.69457197 3.0999999
4.3610101 0.213404 3.06218
4.5187602 0.42612201 3.06218
4.3885198 0.59485602 3.0999999
4.5044298 0.696904 3.06218
4.2895598 0.41313899 3.06218
4.6445298 0.54578102 3.0999999
4.69484 0.76975602 3.0999999
4.3357 0.71145302 3.0999999
4.4707298 0.196997 3.06218
4.4633498 0.68112099 3.0999999
4.56388 -0.0449057 3.06218
4.5889101 0.67028701 3.0999999
4.29456 0.442031 3.0999999
4.4752002 0.170348 3.0999999
4.55582 0.809232 3.0999999
4.5262299 0.171717 3.0999999
4.5619302 0.239328 3.06218
4.4463201 0.325712 3.0999999
4.5658202 0.77037901 3.06218
4.6343699 0.33549601 3.0999999
4.68505 0.84952801 3.0999999
4.4600801 0.31863099 3.06218
4.3032198 0.161476 3.06218
4.5437999 -0.022745799 3.06218
4.5451102 0.64947599 3.0999999
4.6366801 0.094953097 3.06218
4.52665 -0.0895276 3.0999999
4.5908499 0.16408201 3.0999999
4.5632501 0.192993 3.0999999
4.6222 -0.063348301 3.06218
4.69379 0.57615501 3.0999999
4.56179 0.47837999 3.06218
4.7045698 0.66490901 3.0999999
4.3555398 0.44132501 3.0999999
4.4430099 -0.046733402 3.0999999
4.4838099 0.494872 3.0999999
4.6041498 0.032997798 3.0999999
4.5921402 0.63563699 3.0999999
4.5085101 0.41182399 3.06218
4.4608302 0.57888699 3.0999999
4.4953899 0.103457 3.0999999
4.46382 0.420127 3.0999999
4.5018101 0.105571 3.0999999
4.6907001 0.79057097 3.06218
4.5437999 -0.022745799 3.06218
4.57972 0.320683 3.0999999
4.48175 0.68964201 3.06218
4.59164 0.66235101 3.0999999
4.3966599 0.0947809 3.0999999
4.48208 0.58027899 3.0999999
4.5156298 0.43746501 3.0999999
4.6484399 0.26737699 3.0999999
4.6298299 0.273581 3.0999999
4.4094601 -0.0367877 3.06218
4.4402299 0.56257999 3.06218
4.6960902 0.37762299 3.0999999
4.5222201 -0.088909097 3.06218
4.6230202 0.36707401 3.06218
4.7150698 -0.0123093 3.0999999
4.7083302 0.47071299 3.0999999
4.53404 0.33774501 3.06218
4.60255 0.16542999 3.06218
4.4456701 0.081013396 3.06218
4.42342 0.186739 3.06218
4.4687901 0.15790001 3.06218
4.6210999 0.076658502 3.0999999
4.5288801 0.20224001 3.06218
4.6988201 0.439518 3.0558801
4.5262299 0.171717 3.0999999
4.52879 0.68677503 3.06218
4.3059702 0.70532 3.0999999
4.3139701 0.37303299 3.0999999
4.59375 0.514983 3.0999999
4.41817 -0.0030984899 3.0999999
4.57337 0.214701 3.0999999
4.3651299 0.42906699 3.0999999
4.3271599 0.225785 3.0999999
4.3612299 0.847646 3.06218
4.2893801 0.095833801 3.06218
4.6466799 0.72237498 3.0999999
4.3870301 0.41918901 3.0999999
4.5314698 0.57143402 3.06218
4.6732502 0.499704 3.0999999
4.4049702 0.040318701 3.06218
4.3559699 0.135498 3.06218
4.37047 0.65992999 3.06218
4.5752301 -0.0090656299 3.0999999
4.6988201 0.209802 3.0462799
4.6555901 0.85516602 3.06218
4.6441498 0.62943101 3.06218
4.5093498 0.507164 3.06218
4.3874402 -0.067420997 3.06218
4.7061801 0.63101798 3.0999999
4.3800702 0.061076902 3.0999999
4.3001399 0.52747202 3.06218
4.4002099 0.37827101 3.06218
4.5539799 0.25278401 3.06218
4.4197898 0.144462 3.06218
4.38204 0.73341602 3.06218
4.7122698 0.159126 3.0999999
4.3441601 0.093121096 3.0999999
4.6697602 1.10031 3.06218
4.3198299 1.6742899 3.06218
4.5803399 1.82637 3.0999999
4.3828101 1.21393 3.06218
4.4124198 1.07082 3.06218
4.4896598 1.57164 3.06218
4.5497298 1.20652 3.06218
4.5438499 1.55876 3.0999999
4.4457898 1.78383 3.06218
4.6988201 1.11061 3.04636
4.6662502 1.60685 3.0999999
4.4646101 1.7810301 3.06218
4.2976198 1.40942 3.06218
4.49263 1.02238 3.06218
4.2944298 1.25888 3.0999999
4.66118 1.86322 3.0999999
4.3824902 1.19493 3.0999999
4.3260398 1.40968 3.06218
4.46592 1.83636 3.06218
4.40801 1.17147 3.0999999
4.6009498 1.23963 3.06218
4.6178298 1.77117 3.0999999
4.7115002 1.13816 3.0999999
4.5859799 1.28512 3.06218
4.4359899 0.89051199 3.0999999
4.67626 1.74269 3.06218
4.4660401 1.68838 3.0999999
4.6988201 1.07111 3.0518799
4.5376101 1.75887 3.06218
4.6397099 1.58114 3.06218
4.6482 1.5720299 3.06218
4.48243 1.3894399 3.0999999
4.6067801 0.88621497 3.0999999
4.4348798 1.13262 3.0999999
4.3968 1.3284 3.06218
4.6599998 1.26324 3.0999999
4.4927802 1.21225 3.0999999
4.7133598 1.1390001 3.0999999
4.4190102 0.94340599 3.06218
4.5763302 1.31428 3.06218
4.6388998 1.0772099 3.06218
4.3441501 0.902592 3.0999999
4.35639 1.18782 3.0999999
4.3627501 1.43065 3.06218
4.3495898 1.49482 3.06218
4.4505801 1.21474 3.0999999
4.3420601 1.51894 3.06218
4.6398602 1.24163 3.06218
4.4769001 0.87140399 3.06218
4.4789901 1.79766 3.0999999
4.58635 1.15088 3.0999999
4.32059 0.87405401 3.0999999
4.37641 1.16087 3.0999999
4.3636098 1.06831 3.06218
4.5416999 1.11336 3.06218
4.4658999 1.21562 3.06218
4.6256399 1.65423 3.06218
4.5264602 1.5747499 3.0999999
4.3383698 1.61773 3.06218
4.3209801 1.15179 3.06218
4.40452 1.02264 3.0999999
4.5789499 1.13605 3.0999999
4.4882102 1.1772 3.06218
4.68821 1.23861 3.06218
4.3369098 0.96413201 3.0999999
4.5455499 1.5416 3.06218
4.3399 1.14619 3.06218
4.4780698 1.4414099 3.06218
4.4277902 0.87018597 3.06218
4.5225801 1.70789 3.0999999
4.5961499 1.5694799 3.06218
4.6819301 1.1018 3.0999999
4.4187799 1.22868 3.06218
4.3547001 0.93587101 3.06218
4.3708601 1.79374 3.06218
4.3801799 1.4828 3.06218
4.55967 1.21299 3.06218
4.39608 0.965271 3.0999999
4.41572 1.46921 3.0999999
4.3987498 1.7218699 3.06218
4.4345198 1.19967 3.0999999
4.6291399 1.69411 3.06218
4.46176 1.42855 3.0999999
4.4591699 1.10189 3.0999999
4.5289102 1.05677 3.06218
4.3007202 1.4942501 3.06218
4.6988201 1.1458 3.04231
4.6403799 1.25102 3.06218
4.3088002 1.43911 3.0999999
4.4675698 1.22012 3.0999999
4.3477998 1.31682 3.06218
4.3046198 1.84893 3.06218
4.4601998 1.54599 3.0999999
4.52037 1.77166 3.06218
4.4316201 1.40203 3.0999999
4.50844 1.23587 3.0999999
4.57162 1.28126 3.0999999
4.3238902 0.98264998 3.06218
4.50845 0.881971 3.0999999
4.59061 1.16654 3.0999999
4.3597498 1.10672 3.06218
4.5955501 1.65455 3.0999999
4.3668199 0.97984701 3.06218
4.4917202 1.35751 3.06218
4.4797902 1.05308 3.06218
4.3371 1.51194 3.0999999
4.41676 0.99841797 3.0999999
4.5900402 0.86835998 3.0999999
4.38589 1.73579 3.06218
4.4405999 1.51999 3.06218
4.4109201 0.946374 3.0999999
4.63587 1.05364 3.06218
4.5427699 1.85669 3.06218
4.4973798 1.71793 3.06218
4.53721 1.11169 3.0999999
4.37853 1.80819 3.0999999
4.3225598 1.03159 3.0999999
4.38516 0.97324502 3.06218
4.4463701 1.06418 3.06218
4.49965 1.15318 3.0999999
4.58148 1.52244 3.06218
4.2938099 1.50043 3.0999999
4.50741 1.77087 3.0999999
4.6724701 1.78968 3.0999999
4.5746398 1.67942 3.06218
4.2971702 1.1888 3.06218
4.5756798 1.38203 3.0999999
4.566 1.58594 3.0999999
4.6645799 1.25114 3.0999999
4.4762201 1.5341001 3.06218
4.5644398 1.05047 3.0999999
4.6888599 1.56964 3.06218
4.43084 0.90823299 3.06218
4.6750498 1.79001 3.06218
4.64783 1.04471 3.06218
4.6623502 1.36612 3.06218
4.5826998 1.7372299 3.0999999
4.3741298 1.36385 3.0999999
4.5532498 1.1096801 3.06218
4.3183298 1.3346 3.06218
4.6668301 1.83858 3.06218
4.3224802 1.08031 3.0999999
4.42381 1.42711 3.0999999
4.2959599 1.51054 3.06218
4.5423198 1.06371 3.0999999
4.63135 1.32771 3.0999999
4.4418702 1.78435 3.0999999
4.4058199 1.7506 3.06218
4.3178101 1.0959001 3.06218
4.50246 1.5236 3.06218
4.4326801 1.01941 3.06218
4.4342399 1.00315 3.06218
4.4299302 1.12061 3.0999999
4.6415901 1.2456 3.0999999
4.46382 1.0529799 3.0999999
4.4998498 1.44889 3.0999999
4.5769501 1.29049 3.0999999
4.4242401 1.83174 3.0999999
4.6471601 1.13241 3.0999999
4.3867102 0.90567201 3.06218
4.6960301 1.66278 3.06218
4.5934901 1.57016 3.0999999
4.57863 1.6309201 3.06218
4.6045599 1.71058 3.0999999
4.6560202 1.75302 3.0999999
4.5222101 1.62867 3.0999999
4.3947601 1.8378201 3.0999999
4.5830102 1.76327 3.0999999
4.4781599 1.70771 3.06218
4.5985699 1.41073 3.0999999
4.6876402 1.06201 3.0999999
4.5705199 1.6343499 3.06218
4.3699198 1.6945601 3.0999999
4.3496699 1.6921999 3.06218
4.42067 1.65221 3.0999999
4.7017498 1.82433 3.0999999
4.3583798 1.08762 3.0999999
4.3087401 1.0316 3.06218
4.4770298 1.7786601 3.0999999
4.3385701 1.61703 3.06218
4.29106 1.02028 3.0999999
4.6459999 1.6196001 3.0999999
4.3134699 1.08558 3.0999999
4.5412502 1.2673 3.06218
4.5683498 1.62711 3.06218
4.4425101 1.61801 3.06218
4.6084299 1.7036099 3.06218
4.61094 1.62874 3.06218
4.6988201 1.60607 3.0501499
4.69346 1.30267 3.0999999
4.3323002 1.00449 3.0999999
4.3696499 1.0681601 3.0999999
4.4224401 1.74849 3.0999999
4.6524701 1.1214 3.06218
4.6705899 1.16624 3.06218
4.3607898 1.30908 3.0999999
4.4864998 1.60221 3.06218
4.5683498 1.62711 3.06218
4.3924899 1.82242 3.06218
4.3635201 1.2725 3.06218
4.6988201 1.71409 3.06111
4.5721698 1.71106 3.0999999
4.3531499 1.30084 3.06218
4.62815 1.11966 3.0999999
4.3194599 1.65253 3.0999999
4.5050101 1.55969 3.0999999
4.6167698 1.0875 3.0999999
4.6779499 1.8286099 3.0999999
4.6276102 1.82932 3.0999999
4.5724602 1.5801001 3.06218
4.4852901 1.86515 3.0999999
4.40064 1.04301 3.06218
4.4159398 1.7467099 3.06218
4.5289102 1.05677 3.06218
4.6179399 1.37167 3.0999999
4.3484402 1.37442 3.06218
4.4109201 0.946374 3.0999999
4.7116699 1.06918 3.0999999
4.6179399 1.37167 3.0999999
4.2885098 1.8532799 3.06218
4.6543298 1.34203 3.06218
4.4769001 0.87140399 3.06218
4.41435 1.62214 3.0999999
4.43051 1.77908 3.06218
4.3619399 1.2496901 3.0999999
4.5060701 1.50033 3.06218
4.4665599 1.77297 3.06218
4.46066 1.4091001 3.06218
4.5457401 1.6022 3.0999999
4.3094101 1.72992 3.0999999
4.6306701 1.5848 3.0999999
4.4050498 0.90847301 3.06218
4.6473298 1.27604 3.0999999
4.2998199 1.33427 3.06218
4.6067801 0.88621497 3.0999999
4.3681302 1.05673 3.0999999
4.4436498 0.99157602 3.06218
4.3907099 1.0913399 3.06218
4.6291599 1.62551 3.06218
4.63697 1.77837 3.0999999
4.5850301 1.83786 3.06218
4.5721698 1.71106 3.0999999
4.3211098 1.14946 3.0999999
4.2908502 1.64346 3.0999999
4.3695302 1.74841 3.06218
4.3225498 1.2145 3.06218
4.4224901 1.1754301 3.06218
4.3070302 1.72328 3.0999999
4.32376 1.4986399 3.0999999
4.64012 1.83213 3.06218
4.3687501 1.18224 3.06218
4.4151502 1.28581 3.06218
4.6472101 0.87343901 3.0999999
4.4293499 1.52387 3.0999999
4.3097801 1.15736 3.0999999
4.5253701 1.57537 3.0999999
4.65696 1.82706 3.0999999
4.5342798 0.87586999 3.06218
4.4372201 1.85528 3.06218
4.4457302 0.88926601 3.06218
4.3576899 1.7431901 3.0999999
4.3526101 1.39644 3.06218
4.5335898 1.3085999 3.0999999
4.60953 1.0001301 3.06218
4.5489802 1.1430399 3.0999999
4.49717 1.29252 3.06218
4.61903 1.27977 3.0999999
4.51231 1.46869 3.0999999
4.4019198 1.4474 3.0999999
4.3104601 1.06128 3.06218
4.3166299 1.35443 3.0999999
4.4987001 1.77204 3.06218
4.4158201 1.09007 3.06218
4.4489298 0.92815399 3.06218
4.42698 1.06082 3.0999999
4.4744101 1.17839 3.0999999
4.59939 1.05073 3.0999999
4.5598302 1.5832601 3.0999999
4.3640599 1.53523 3.06218
4.43506 1.1172 3.0999999
4.6960301 1.66278 3.06218
4.37185 1.1165299 3.06218
4.4224901 1.1754301 3.06218
4.40098 1.11725 3.06218
4.4179201 1.48062 3.06218
4.38552 1.798 3.06218
4.5216398 1.42263 3.0999999
4.30373 1.5633399 3.06218
4.4976401 1.71655 3.06218
4.5438499 1.55876 3.0999999
4.6782098 1.35535 3.06218
4.4428501 0.88909602 3.0999999
4.7012901 1.10261 3.0999999
4.7033501 1.6328 3.0999999
4.4045401 1.5888 3.0999999
4.4981198 1.58805 3.06218
4.43016 1.58649 3.0999999
4.6988201 1.2412601 3.0550699
4.4854498 1.34585 3.0999999
4.41996 1.31541 3.06218
4.3150301 1.37779 3.0999999
4.3292599 0.90156901 3.06218
4.3464599 1.29612 3.06218
4.33671 0.959409 3.06218
4.5043001 1.55042 3.0999999
4.3334599 1.57996 3.06218
4.5085301 1.56407 3.0999999
4.5672302 1.58399 3.0999999
4.4030099 1.35021 3.06218
4.6196198 1.28415 3.06218
4.4260898 1.67792 3.06218
4.6692901 1.23051 3.0999999
4.4134402 1.68047 3.06218
4.6988201 1.6127501 3.0548501
4.3497801 1.01487 3.0999999
4.6491799 1.4031399 3.0999999
4.6855302 1.8103499 3.06218
4.40554 1.31997 3.0999999
4.51684 1.74255 3.06218
4.4949298 1.79133 3.06218
4.3162899 1.54259 3.06218
4.3329802 0.90685302 3.0999999
4.5831099 1.1415401 3.06218
4.3316202 1.43887 3.0999999
4.54812 1.40333 3.0999999
4.3800201 1.25966 3.06218
4.5151801 1.26306 3.06218
4.5738101 1.2784801 3.0999999
4.6684198 1.14525 3.06218
4.31078 1.66366 3.0999999
4.4637599 1.16041 3.06218
4.5280299 1.3918999 3.06218
4.3445101 1.06789 3.0999999
4.3799901 1.61274 3.06218
4.61094 1.62874 3.06218
4.3838301 1.80452 3.0999999
4.6782098 1.35535 3.06218
4.4897499 1.32776 3.06218
4.5254502 1.0612299 3.06218
4.3831301 1.59402 3.06218
4.5358701 1.24353 3.0999999
4.5623999 1.39446 3.0999999
4.4078598 1.40407 3.06218
4.5078101 1.09339 3.0999999
4.3681302 1.05673 3.0999999
4.4044399 1.68455 3.06218
4.6935101 1.83205 3.0999999
4.6257601 1.24809 3.06218
4.5300202 1.68457 3.06218
4.2883401 1.1912301 3.06218
4.67624 1.69663 3.06218
4.5412502 1.2673 3.06218
