# .PCD v0.7 - Point Cloud Data file format
VERSION 0.7
FIELDS x y z
SIZE 4 4 4
TYPE F F F
COUNT 1 1 1
WIDTH 1488
HEIGHT 1
VIEWPOINT 0 0 0 1 0 0 0
POINTS 1488
DATA ascii
-0.48864999 0.791951 0.66850102
-0.45604599 0.791951 0.82347202
-0.51915097 0.791951 0.704193
-0.50406498 0.791951 0.434654
-0.70093 0.28893301 0.28765801
-0.70722699 0.791951 0.503124
-0.53122002 0.80737001 0.253409
-0.24282099 0.50088602 0.28765801
-0.30574399 0.42233801 0.42190999
-0.41223401 -0.0148831 0.37483901
-0.66848201 0.76754099 0.85760403
-0.28425601 0.36995801 0.28765801
-0.51043999 0.791951 0.430756
-0.66994202 0.56901801 0.28765801
-0.67993599 0.33905599 0.30275801
-0.477797 0.80737001 0.16604
-0.36291301 0.80737001 0.145422
-0.31972 0.791951 0.082521103
-0.53969097 0.40278801 0.28765801
-0.39880699 0.247392 0.28765801
-0.63051802 0.53936601 0.31290701
-0.68837702 0.69299299 0.35920301
-0.191146 0.642232 0.37789601
-0.196263 0.59523702 0.28765801
-0.25000399 0.0080289897 0.19310001
-0.56035298 0.80737001 0.216921
-0.20292699 0.119099 0.28765801
-0.294853 -0.0148831 0.340121
-0.5205 0.76754099 0.837152
-0.63001698 0.00606373 0.399418
-0.545919 0.80737001 0.15479
-0.33369899 0.80737001 0.117639
-0.68369401 0.78578597 0.83678001
-0.48377699 0.66439003 0.28765801
-0.250976 0.69094801 0.404874
-0.41833201 0.58771402 0.28765801
-0.25277799 0.791951 0.21881101
-0.554892 0.34710801 0.28765801
-0.53447998 0.78874999 0.83678001
-0.55225497 0.791951 0.62698698
-0.30726999 0.28080499 0.28765801
-0.215555 -0.0096646203 0.20219
-0.56670302 0.791951 0.60237998
-0.628613 0.21931501 0.40446201
-0.28808299 0.79805601 0.86653697
-0.20859601 0.76754099 0.130603
-0.224234 0.80737001 0.116889
-0.191146 0.591685 0.290656
-0.19776499 -0.0148831 0.32576701
-0.46867201 0.42130801 0.42190999
-0.48604199 0.45049 0.42190999
-0.24739 0.348829 0.28765801
-0.45276499 0.791951 0.63604897
-0.47169501 0.57272202 0.28765801
-0.58561403 0.791951 0.45970899
-0.637362 0.791951 0.16040599
-0.63051802 0.106632 0.34268701
-0.702829 0.64888799 0.28765801
-0.22927999 0.42702499 0.28765801
-0.710518 0.1105 0.28765801
-0.306575 0.59703898 0.28765801
-0.25652501 0.187938 0.42190999
-0.548123 0.60104501 0.28765801
-0.20084301 0.83559 0.347487
-0.69428802 0.80737001 0.049589898
-0.50581598 0.791951 0.63744903
-0.54126 0.33905599 0.288183
-0.28500199 0.791951 0.277796
-0.314401 0.791951 0.26335999
-0.54322702 -0.0148831 0.320149
-0.36110899 0.791951 0.39810801
-0.412945 0.33518699 0.40850499
-0.236141 0.791951 0.48010001
-0.20084301 0.79999298 0.69985801
-0.56739002 0.791951 0.46234599
-0.25404501 0.44079599 0.42190999
-0.49765599 0.80737001 0.80321801
-0.59157503 0.791951 0.400942
-0.33699799 0.791951 0.670636
-0.64446098 0.52213001 0.41835999
-0.191146 0.62880701 0.38570401
-0.57155597 0.791951 0.83525902
-0.215555 -0.00238901 0.16408101
-0.20920999 0.76754099 0.70210701
-0.20084301 0.799348 0.47533101
-0.464008 0.80737001 0.807307
-0.66199899 0.80737001 0.244828
-0.219787 0.80737001 0.85915297
-0.48169601 0.33955801 0.28765801
-0.188638 0.839333 0.50093699
-0.371241 0.80737001 0.135516
-0.351863 0.76754099 0.84205699
-0.191146 0.30188099 0.34624299
-0.27801201 0.33905599 0.30319801
-0.52898198 0.80737001 0.14837
-0.22145601 0.83031899 0.74023199
-0.235862 0.082001403 0.42190999
-0.32841599 0.49224699 0.28765801
-0.24292099 0.553307 0.42190999
-0.198549 0.381134 0.41317701
-0.30894801 0.791951 0.47706601
-0.235862 0.082001403 0.42190999
-0.449027 0.791951 0.415667
-0.577672 0.82789999 0.35393599
-0.58160698 0.30998999 0.42190999
-0.369488 0.80737001 0.83940101
-0.228352 0.106653 0.28765801
-0.30416599 0.80737001 0.35157201
-0.634381 0.791951 0.48231599
-0.27722299 0.791951 0.75564098
-0.68998098 0.46216401 0.42190999
-0.27633601 0.80737001 0.84100002
-0.191146 0.073687002 0.36934799
-0.294397 0.13243601 0.28765801
-0.33369899 0.80737001 0.117639
-0.65250498 0.68626702 0.28765801
-0.40022501 0.155898 0.42190999
-0.63051802 0.46454501 0.37621
-0.188638 0.80938601 0.56989902
-0.33625501 0.791951 0.48340601
-0.69213098 0.80737001 0.223847
-0.60323203 0.791951 0.70682597
-0.395569 0.34470099 0.411167
-0.24319699 0.429867 0.27276599
-0.52954501 0.80737001 0.062096201
-0.236154 0.815943 0.74951798
-0.64539999 0.791951 0.56097603
-0.52127898 0.48078299 0.42190999
-0.70967501 0.791951 0.37994701
-0.66134697 0.69049901 0.40582401
-0.36331999 0.791951 0.61045998
-0.24735899 0.69299299 0.060061902
-0.33723301 0.33905599 0.344248
-0.196024 0.80737001 0.607674
-0.20084301 0.808272 0.26800701
-0.383333 0.0538828 0.42190999
-0.70985502 0.61693001 0.28765801
-0.54059798 0.791951 0.32229799
-0.25126499 -0.0148831 0.168005
-0.354348 0.64233899 0.42190999
-0.676103 0.60972899 0.28765801
-0.60385799 0.791951 0.17844801
-0.62515998 0.791951 0.40762699
-0.66623402 0.791951 0.80141801
-0.33335501 0.791951 0.591802
-0.48629001 0.791951 0.66110998
-0.47882801 0.791951 0.108592
-0.588588 0.186217 0.42190999
-0.26775399 0.091852002 0.42190999
-0.25216901 0.49674201 0.277363
-0.25550199 0.59676403 0.28765801
-0.287175 0.791951 0.45024401
-0.55708498 0.33905599 0.331536
-0.57153898 0.80737001 0.21522699
-0.47723401 0.77817202 0.86653697
-0.67857301 0.791951 0.059394799
-0.545919 0.80737001 0.15479
-0.205139 0.313988 0.418383
-0.47200099 0.166989 0.28765801
-0.62757498 0.28337899 0.40673101
-0.25060299 0.108376 0.28765801
-0.290288 0.791951 0.13824201
-0.48306799 0.791951 0.28839001
-0.69298798 0.85110599 0.35393599
-0.231411 0.76754099 0.86065102
-0.248677 0.0080289999 0.086375102
-0.68137401 0.33904901 0.39461699
-0.399699 0.791951 0.49123701
-0.35181299 0.56582701 0.28765801
-0.191146 -0.0078432402 0.32257301
-0.50542098 0.434939 0.42190999
-0.191146 0.18828601 0.380905
-0.65842003 -0.0148831 0.338375
-0.248376 0.791951 0.66847903
-0.40671599 0.29934499 0.42190999
-0.66999799 0.80737001 0.202813
-0.199955 0.25253499 0.414574
-0.49462301 0.35244 0.41802901
-0.408308 0.791951 0.19744501
-0.47200099 0.166989 0.28765801
-0.49727499 0.260878 0.28765801
-0.24435499 0.189743 0.28765801
-0.20457099 0.42548001 0.418055
-0.249346 0.0080289897 0.18173
-0.27880499 0.791951 0.31908801
-0.63051802 0.57191098 0.32068101
-0.558819 0.84038401 0.35393599
-0.50736499 0.80737001 0.061908402
-0.62617499 0.791951 0.81208497
-0.191146 0.52799302 0.300374
-0.70208001 0.210779 0.28765801
-0.425134 0.200959 0.42190999
-0.48894599 0.791951 0.80616802
-0.64468497 0.680664 0.41732299
-0.417741 0.33905599 0.35331699
-0.551157 0.287249 0.42190999
-0.22119799 0.550731 0.27276599
-0.70279998 0.073457003 0.42190999
-0.25850901 0.80737001 0.33608299
-0.37165701 0.61354202 0.28765801
-0.696105 0.791951 0.394012
-0.544788 0.332672 0.28765801
-0.370208 0.290898 0.28765801
-0.28506401 0.80737001 0.075056702
-0.42192999 0.76754099 0.84449297
-0.61643702 0.80737001 0.79065901
-0.191146 0.62880701 0.38570401
-0.20084301 0.79456002 0.439273
-0.39014301 0.58656698 0.42190999
-0.64677602 0.82803798 0.35393599
-0.45712301 -0.0148831 0.37221599
-0.29521999 0.164865 0.42190999
-0.40349099 0.78716999 0.86653697
-0.35658199 -0.0148831 0.387721
-0.43815199 0.791951 0.105712
-0.191146 0.22134 0.32834199
-0.20084301 0.79420698 0.32646701
-0.37496299 0.259729 0.28765801
-0.411376 0.84058702 0.78110099
-0.23824 0.86103302 0.75846899
-0.69909602 0.26084 0.28765801
-0.191146 0.218511 0.376829
-0.58520901 0.791951 0.67051703
-0.63228703 0.58573997 0.28765801
-0.35771999 -0.0148831 0.38705
-0.46257401 0.33905599 0.358504
-0.67944098 -0.0148831 0.29196
-0.50575298 0.791951 0.65955102
-0.58607101 0.791951 0.151427
-0.25216901 0.36181 0.285983
-0.36291301 0.80737001 0.145422
-0.70262301 0.80737001 0.80509597
-0.371007 -0.0046117101 0.41585401
-0.45435199 0.80737001 0.30806801
-0.34939301 0.24557599 0.42190999
-0.36762699 0.791951 0.277035
-0.34858599 0.791951 0.120115
-0.50298297 0.335475 0.408025
-0.40501601 0.60178101 0.28765801
-0.33339101 -0.0148831 0.35145301
-0.59561598 0.608711 0.28765801
-0.45211101 0.791951 0.237964
-0.39450499 0.791951 0.39463699
-0.63257903 0.80737001 0.35060301
-0.191146 -0.0058711199 0.29217699
-0.20084301 0.82931399 0.24629299
-0.191146 0.042835999 0.381565
-0.55033898 0.791951 0.56644601
-0.25850901 0.80737001 0.33608299
-0.46641201 0.76754099 0.85141599
-0.191146 0.64776802 0.39010799
-0.686405 0.80737001 0.14453299
-0.300621 0.791951 0.19733401
-0.215555 0.69169098 0.098653302
-0.34558299 0.77618098 0.83678001
-0.509956 0.28979599 0.42190999
-0.54195499 0.226606 0.42190999
-0.260068 0.80737001 0.30610001
-0.66892397 0.80737001 0.86615801
-0.515984 0.80737001 0.83624899
-0.57007003 -0.0148831 0.31882301
-0.203474 0.80737001 0.763771
-0.26351601 0.58943599 0.28765801
-0.51978302 -0.0148831 0.36237499
-0.304461 0.80737001 0.241228
-0.54597902 0.12785199 0.28765801
-0.229404 0.80737001 0.176347
-0.212374 0.80737001 0.82297403
-0.25216901 0.67537099 0.095238201
-0.51634598 0.50802201 0.28765801
-0.55578202 0.66181898 0.42190999
-0.61487597 0.185417 0.41919699
-0.63051802 0.56484699 0.296413
-0.195557 0.53317499 0.409316
-0.20084301 0.78941602 0.179508
-0.245703 0.791951 0.42778799
-0.50926203 0.44777599 0.42190999
-0.481049 0.28829899 0.28765801
-0.278779 0.077447698 0.42190999
-0.298473 0.50687301 0.28765801
-0.65578097 0.0283309 0.42177099
-0.29056001 0.80737001 0.200178
-0.28636 0.69299299 0.311436
-0.20084301 0.79200602 0.57526702
-0.20084301 0.86111897 0.32142201
-0.63051802 0.60346299 0.36211801
-0.191146 0.45285699 0.30670699
-0.69531798 0.276398 0.42190999
-0.56034899 0.47622201 0.28765801
-0.37996301 0.80737001 0.82300103
-0.588588 0.186217 0.42190999
-0.46808401 0.791951 0.52532601
-0.56922603 0.47009301 0.42190999
-0.55317599 0.67202097 0.42110899
-0.53791898 0.30711299 0.42190999
-0.39420301 0.15765899 0.28765801
-0.45739001 0.33905599 0.34913999
-0.47181299 0.248887 0.42190999
-0.68824798 0.791951 0.78596002
-0.229404 0.80737001 0.176347
-0.188638 0.81771898 0.423733
-0.31478 0.130101 0.28765801
-0.25890499 0.791951 0.084501997
-0.20084301 0.79123801 0.39733499
-0.215555 0.59174502 0.283499
-0.470164 0.159752 0.28765801
-0.60270602 0.791951 0.77791202
-0.31096199 0.196815 0.28765801
-0.294397 0.13243601 0.28765801
-0.253111 0.22173201 0.42190999
-0.44645399 0.791951 0.63765001
-0.68881702 0.085761897 0.28765801
-0.51089901 0.39489901 0.28765801
-0.24211 0.26470599 0.42190999
-0.50451899 0.69299299 0.355663
-0.319121 0.791951 0.63250101
-0.191146 0.39001799 0.29388499
-0.65893501 0.791951 0.72444397
-0.191146 0.222721 0.32319701
-0.66883802 0.841223 0.35393599
-0.36602601 0.791951 0.50660598
-0.69895899 0.114721 0.42190999
-0.20084301 0.77991098 0.63221103
-0.408308 0.791951 0.19744501
-0.205015 0.45139799 0.418322
-0.27242801 0.032280698 0.42190999
-0.36392099 0.80737001 0.097078502
-0.31264299 0.59947801 0.28765801
-0.622841 0.488401 0.41348901
-0.318185 0.444837 0.42190999
-0.393794 0.791951 0.60206997
-0.58577299 0.791951 0.122175
-0.29179099 0.69016701 0.40649599
-0.599204 0.791951 0.71974403
-0.21053299 0.76754099 0.39009899
-0.35485399 0.48185599 0.28765801
-0.27516001 0.068549097 0.42190999
-0.54597902 0.12785199 0.28765801
-0.56375003 0.33905599 0.34515801
-0.51176798 0.23410399 0.42190999
-0.54923999 0.39789999 0.28765801
-0.66175801 0.34623301 0.28765801
-0.220818 0.22470701 0.28765801
-0.51518798 0.0080729304 0.28765801
-0.53298801 0.33163801 0.28765801
-0.71319199 0.52092201 0.28765801
-0.20084301 0.84352499 0.21538401
-0.22700199 0.42310399 0.27276599
-0.23275501 0.59745699 0.42190999
-0.56496698 0.80737001 0.84815001
-0.26759699 0.83895099 0.78110099
-0.561203 0.791951 0.80965298
-0.197026 0.34924501 0.28765801
-0.56088299 0.791951 0.152587
-0.69180202 0.0780534 0.42190999
-0.39695799 0.69299299 0.35903499
-0.21259101 0.33905599 0.36526099
-0.219818 0.76754099 0.82307303
-0.191146 0.12011 0.35041001
-0.27013099 0.791951 0.42138699
-0.29369101 0.351024 0.28765801
-0.25727099 0.26234001 0.42190999
-0.219364 0.83084202 0.35393599
-0.681907 0.0063483799 0.42116001
-0.56867802 0.791951 0.39824101
-0.64542198 0.791951 0.81955898
-0.28253901 0.80737001 0.79167998
-0.215555 0.67668599 0.093620896
-0.437547 0.791951 0.67422003
-0.60430402 0.023745701 0.42183301
-0.62703502 0.791951 0.26427901
-0.38551399 0.28858101 0.28765801
-0.53747803 0.33905599 0.37116399
-0.52126998 0.791951 0.81387001
-0.191146 0.50815499 0.36023301
-0.63051802 0.171469 0.35838899
-0.53791898 0.30711299 0.42190999
-0.588287 0.791951 0.104998
-0.188638 0.810229 0.54912502
-0.34002501 0.505086 0.42190999
-0.428729 0.29402101 0.42190999
-0.379262 0.55465198 0.42190999
-0.44284701 0.33774301 0.402715
-0.4729 0.58883101 0.42190999
-0.51822799 0.66717398 0.28765801
-0.40671599 0.29934499 0.42190999
-0.54902798 0.791951 0.12723701
-0.216951 0.80737001 0.26210001
-0.49364901 0.47089601 0.28765801
-0.37527701 0.50457197 0.28765801
-0.63051802 0.12638301 0.31860599
-0.45572701 0.35704601 0.420192
-0.377655 0.476928 0.42190999
-0.499405 0.80737001 0.31118801
-0.65684199 0.80737001 0.19311599
-0.203096 0.80737001 0.757873
-0.54615903 0.30203301 0.42190999
-0.272834 0.791951 0.171958
-0.70496601 0.154229 0.28765801
-0.58705598 0.34657899 0.28765801
-0.67592603 0.791951 0.79027998
-0.297847 0.80737001 0.28502601
-0.63051802 0.12143 0.33486199
-0.191146 0.21833 0.37234801
-0.677571 0.58669299 0.28765801
-0.274441 0.357593 0.28765801
-0.51991397 0.791951 0.76834702
-0.70571399 0.34653401 0.28765801
-0.52965999 0.791951 0.70834798
-0.59743398 0.79428601 0.86653697
-0.69756502 0.80737001 0.050358299
-0.61669099 0.50966501 0.418302
-0.357256 0.273496 0.42190999
-0.26378301 0.23744 0.42190999
-0.49713099 -0.000218285 0.28765801
-0.208435 -0.0113576 0.407911
-0.69777101 0.49766099 0.42190999
-0.191146 0.45153701 0.354431
-0.33163401 0.80737001 0.221117
-0.28072599 0.48997 0.28765801
-0.65250498 0.68626702 0.28765801
-0.707057 0.032001901 0.28765801
-0.570346 0.80737001 0.17599501
-0.47909299 0.39849901 0.42190999
-0.21804699 0.127795 0.27276599
-0.42452499 0.49131101 0.42190999
-0.232235 0.809798 0.77440703
-0.58933198 0.85725701 0.35393599
-0.32291299 0.30678001 0.28765801
-0.53171903 0.25318599 0.28765801
-0.630732 0.292808 0.397802
-0.259626 0.69299299 0.32711101
-0.39653799 0.30790499 0.28765801
-0.19357599 -0.0148831 0.33612099
-0.586357 0.81721902 0.35393599
-0.252673 0.83076698 0.78110099
-0.251387 0.57233799 0.28765801
-0.47031701 0.69299299 0.37319201
-0.60391098 0.588965 0.42185801
-0.38903099 0.791951 0.22289
-0.67650402 0.791951 0.49248201
-0.63051802 0.37690899 0.32753
-0.369578 0.69299299 0.38235399
-0.215555 0.54345697 0.28723201
-0.50634599 0.791951 0.51082098
-0.191146 0.183166 0.385171
-0.308851 0.791951 0.60071999
-0.59377199 0.80737001 0.81468201
-0.315319 0.80737001 0.139392
-0.39324799 0.791951 0.241376
-0.61805499 0.68655998 0.28765801
-0.63042802 0.33905599 0.369762
-0.471039 0.66157198 0.42190999
-0.43534201 -0.0148831 0.33656901
-0.54330099 0.80737001 0.13230599
-0.32966101 0.25781599 0.42190999
-0.261875 0.80737001 0.29524001
-0.63051802 0.075342096 0.38599199
-0.336128 0.791951 0.38961601
-0.51361698 0.791951 0.065415204
-0.191146 0.265205 0.307309
-0.234438 0.43249699 0.28765801
-0.23507901 0.170231 0.28765801
-0.60386598 0.25529999 0.42186099
-0.67180598 0.69299299 0.358244
-0.69898802 0.85794801 0.35393599
-0.33247399 0.80737001 0.79772502
-0.35218999 0.791951 0.088060401
-0.66688198 0.69220603 0.400866
-0.22861999 0.33905599 0.35297501
-0.710177 0.0858422 0.42190999
-0.229403 0.128472 0.28765801
-0.62054998 0.106756 0.28765801
-0.230597 0.77568901 0.78009099
-0.68302202 0.052628201 0.42190999
-0.48567501 0.33905599 0.37539399
-0.61364001 0.791951 0.32030401
-0.49573401 0.84389597 0.35393599
-0.215555 0.130845 0.27548301
-0.191844 0.104905 0.400408
-0.295147 0.59356302 0.42190999
-0.68166298 0.80737001 0.83226699
-0.49765599 0.80737001 0.80321801
-0.40498501 0.791951 0.50085801
-0.63051802 0.016931601 0.30756301
-0.49731901 0.59296101 0.42190999
-0.61038297 0.22612999 0.420917
-0.60495102 0.25967699 0.42179099
-0.23164199 0.43667099 0.42190999
-0.69068998 0.450564 0.42190999
-0.191146 0.63552701 0.369185
-0.48778799 0.791951 0.53062898
-0.249129 0.69299299 0.108741
-0.249552 0.791951 0.78673601
-0.357898 0.80737001 0.253075
-0.70698798 0.34064201 0.40352899
-0.49629399 0.80737001 0.27978301
-0.362964 0.80737001 0.16764501
-0.398231 0.80737001 0.139706
-0.65401602 0.791951 0.81791198
-0.61235702 0.215838 0.28765801
-0.215555 -0.0042094402 0.148614
-0.700939 0.791951 0.74870098
-0.421758 0.791951 0.75089598
-0.410651 0.69299299 0.32933399
-0.329043 0.336171 0.28765801
-0.42728999 0.482384 0.42190999
-0.309145 -0.0148831 0.390232
-0.246722 0.791951 0.76210397
-0.215555 0.54345697 0.28723201
-0.68490899 0.0270129 0.42190999
-0.70891702 0.791951 0.587147
-0.632025 -0.0148831 0.29214099
-0.20084301 0.76896799 0.28967699
-0.67306602 0.772012 0.86653697
-0.20084301 0.79009002 0.12781399
-0.208693 0.80737001 0.73765302
-0.62242103 0.64442301 0.28765801
-0.58968401 0.804483 0.86653697
-0.299164 0.566127 0.42190999
-0.25704399 0.84712303 0.35393599
-0.42805201 0.791951 0.58685702
-0.54283601 0.285806 0.28765801
-0.52769202 0.28123799 0.28765801
-0.71248102 0.791951 0.037795302
-0.67978901 0.120263 0.42190999
-0.71160501 0.791951 0.42040199
-0.36972401 0.791951 0.34968001
-0.248751 0.791951 0.38161999
-0.457086 0.791951 0.194969
-0.354348 0.64233899 0.42190999
-0.56619 0.234631 0.28765801
-0.254271 0.80737001 0.143728
-0.20365199 0.69299299 0.38056201
-0.670865 0.791951 0.78309101
-0.541843 0.45588899 0.42190999
-0.41350099 0.791951 0.25291201
-0.191146 0.59403002 0.38156399
-0.44063401 0.791951 0.22085799
-0.20084301 0.80716199 0.178647
-0.22854701 0.76754099 0.0968953
-0.485681 0.791951 0.31099901
-0.23461699 0.32801601 0.27276599
-0.70038402 0.791951 0.61747998
-0.29773799 -0.0148831 0.332396
-0.45375201 0.791951 0.32530099
-0.53615302 0.207949 0.28765801
-0.57063103 0.137137 0.28765801
-0.234254 0.091786802 0.42190999
-0.60153401 0.070230499 0.28765801
-0.191146 -0.00169386 0.346037
-0.63051802 0.106555 0.35202801
-0.360825 0.67088902 0.42133501
-0.246096 0.69221002 0.40084401
-0.63345498 -0.0140552 0.401059
-0.514902 0.69299299 0.39013699
-0.191146 0.607934 0.323708
-0.334088 0.791951 0.429616
-0.71110499 0.331873 0.412925
-0.37933701 0.791951 0.73194402
-0.63051802 0.142487 0.35050401
-0.30966699 0.791951 0.54655898
-0.39117399 0.181282 0.42190999
-0.57840598 0.33661801 0.28765801
-0.20084301 0.80594802 0.73829001
-0.191146 0.68737602 0.36209199
-0.411376 0.84058702 0.78110099
-0.248024 0.66895097 0.046360999
-0.26064599 0.791951 0.81890798
-0.66321599 0.80737001 0.072987601
-0.26949 0.69299299 0.36262
-0.373528 0.791951 0.812657
-0.62242103 0.64442301 0.28765801
-0.51423103 0.355474 0.28765801
-0.192169 0.80880201 0.61457998
-0.33753899 0.80737001 0.070247397
-0.414877 0.791951 0.422113
-0.40836999 0.791951 0.242185
-0.57211 0.329734 0.28765801
-0.58997202 0.791951 0.39418301
-0.244628 0.16407099 0.28765801
-0.191146 0.23009799 0.29512399
-0.188638 0.85002899 0.346982
-0.24132399 0.791951 0.81526202
-0.20084301 0.78147697 0.53766102
-0.55117899 0.61164898 0.42190999
-0.206062 0.76754099 0.080229603
-0.55165201 0.68929499 0.40825099
-0.48109099 0.227231 0.42190999
-0.42098901 0.791951 0.0464979
-0.509974 0.33470601 0.409224
-0.58104801 0.59846503 0.42190999
-0.414224 0.80737001 0.143493
-0.20084301 0.78119898 0.36679801
-0.56857198 -0.0148831 0.34376901
-0.45261201 0.46255001 0.42190999
-0.264534 0.80737001 0.342213
-0.51016802 0.80737001 0.203445
-0.61743897 0.85755903 0.35393599
-0.40055501 0.791951 0.62997198
-0.50758398 0.33905599 0.302385
-0.63178903 0.243523 0.40259901
-0.70260102 0.80737001 0.25514999
-0.20084301 0.783665 0.17768499
-0.24067201 0.81701201 0.74769598
-0.63051802 0.139083 0.31905201
-0.191146 0.100368 0.326098
-0.23642901 0.37753901 0.28765801
-0.397383 0.33992201 0.40126401
-0.47144899 0.272039 0.28765801
-0.677338 0.80665302 0.86653697
-0.49987 0.33905599 0.318611
-0.25216901 0.265356 0.27300599
-0.56147099 -0.0148831 0.29812601
-0.63051802 0.55201 0.32721099
-0.436634 0.791951 0.57989597
-0.58981198 0.791951 0.21214201
-0.61293298 0.791951 0.51646
-0.48753601 0.80737001 0.160016
-0.191146 0.26597899 0.324368
-0.191146 0.54630601 0.39131901
-0.24516 0.69299299 0.139084
-0.60097897 0.80737001 0.25591901
-0.25545901 0.49508601 0.42190999
-0.29677901 0.791951 0.51737201
-0.71106499 0.36451799 0.28765801
-0.40529001 0.63762802 0.42190999
-0.26351601 0.58943599 0.28765801
-0.705383 0.17628901 0.42190999
-0.67857599 0.69299299 0.341335
-0.611027 0.80737001 0.139843
-0.36348099 0.637586 0.42190999
-0.388769 0.142235 0.42190999
-0.63990498 0.791951 0.76401699
-0.49182999 0.80737001 0.82387799
-0.467769 0.791951 0.0805142
-0.48765799 0.18590701 0.42190999
-0.40790501 0.268343 0.42190999
-0.35010701 0.84669203 0.78110099
-0.486274 0.091503002 0.28765801
-0.48440501 0.80737001 0.232225
-0.63059503 0.119724 0.28765801
-0.70481998 0.791951 0.82127798
-0.294083 0.47899899 0.42190999
-0.53289098 0.791951 0.47192699
-0.234266 0.791951 0.82410997
-0.230597 0.77675998 0.75781697
-0.69049299 0.791951 0.28866801
-0.63051802 0.68318999 0.376293
-0.52989203 0.39118701 0.42190999
-0.211842 0.76754099 0.356675
-0.29027501 -0.0148831 0.39412001
-0.20463599 0.69299299 0.31345001
-0.30913001 0.791951 0.454321
-0.191146 0.46450001 0.342576
-0.30408099 0.791951 0.74618202
-0.191146 0.0760331 0.34093001
-0.223186 0.207331 0.42190999
-0.71176702 0.791951 0.43573099
-0.38220301 0.80737001 0.118685
-0.191146 0.611628 0.357081
-0.63659298 -0.0074761799 0.28765801
-0.20084301 0.771294 0.47980899
-0.22636899 0.0080289897 0.130274
-0.56419998 0.69299299 0.31830701
-0.461483 0.791951 0.67957199
-0.60988802 0.80737001 0.231924
-0.218825 0.0080289999 0.113527
-0.644656 0.33905599 0.38745701
-0.63051802 0.55557603 0.301898
-0.216841 0.45402899 0.28765801
-0.37280801 0.80737001 0.055237599
-0.50729501 0.80232698 0.86653697
-0.69862002 0.50056499 0.42190999
-0.191146 0.58359897 0.34922001
-0.59581298 0.76754099 0.85070699
-0.191146 0.230149 0.37496501
-0.51043701 0.791951 0.33357099
-0.246352 0.0080289897 0.153807
-0.44279 0.791951 0.52559602
-0.29711401 0.80737001 0.273644
-0.63051802 0.35513601 0.338835
-0.659437 0.791951 0.50885201
-0.226464 -0.0148831 0.098512203
-0.55370402 0.63807499 0.28765801
-0.191293 0.21456601 0.39674801
-0.62425297 0.791951 0.327384
-0.29065001 0.0885785 0.42190999
-0.23566701 0.0329745 0.42190999
-0.59696299 0.791951 0.136998
-0.68524301 0.19260199 0.42190999
-0.20084301 0.80412102 0.62745398
-0.47560999 0.84807402 0.78110099
-0.25733501 0.791951 0.098786801
-0.28345701 0.69299299 0.308375
-0.57013798 0.791951 0.52214098
-0.47075799 0.791951 0.10578
-0.41137099 0.253492 0.28765801
-0.224677 0.81568301 0.35393599
-0.597781 0.0065328502 0.28765801
-0.238212 0.80737001 0.325201
-0.52389902 0.80737001 0.092753001
-0.70497298 0.80737001 0.090023398
-0.223727 0.69299299 0.091817498
-0.61302298 0.791951 0.651039
-0.195637 0.0279535 0.40943399
-0.55598098 0.791951 0.530689
-0.63041598 0.294368 0.39606699
-0.21272101 0.80737001 0.65605801
-0.188638 0.81659597 0.24273001
-0.394905 0.80737001 0.79604697
-0.40724501 0.15438201 0.28765801
-0.25097901 0.791951 0.11477
-0.20084301 0.78360099 0.70667702
-0.55370402 0.63807499 0.28765801
-0.22179601 0.34778801 0.28765801
-0.22841699 0.25188899 0.42190999
-0.495839 0.791951 0.49324501
-0.230597 0.78792697 0.31462401
-0.283678 0.601206 0.28765801
-0.37346101 0.157822 0.42190999
-0.300937 0.358004 0.28765801
-0.47083199 0.791951 0.41752201
-0.62589997 0.85553801 0.78110099
-0.29488099 0.458682 0.42190999
-0.20463599 0.69299299 0.31345001
-0.357961 0.791951 0.80239302
-0.19189399 0.0930553 0.28765801
-0.518736 0.43495199 0.42190999
-0.191146 -0.0058711199 0.29217699
-0.33924201 0.60751498 0.42190999
-0.221405 0.57138401 0.28765801
-0.49831 0.0080243098 0.28765801
-0.191919 0.80737001 0.36812001
-0.191146 0.168556 0.34077099
-0.59748799 0.68282998 0.41576099
-0.47488001 0.104247 0.28765801
-0.40732101 0.52593499 0.42190999
-0.33822799 0.00115313 0.41939199
-0.365803 0.80737001 0.83265698
-0.352936 0.80737001 0.85225099
-0.39452499 0.81782699 0.78110099
-0.38641599 0.24491601 0.28765801
-0.273476 0.31066099 0.28765801
-0.40355599 0.494681 0.28765801
-0.71070498 0.57054198 0.28765801
-0.28756201 0.80737001 0.314688
-0.191146 0.111348 0.369755
-0.32415199 0.83898902 0.78110099
-0.20013399 0.489292 0.414731
-0.54034299 0.63524002 0.42190999
-0.547777 0.69299299 0.37106901
-0.32758501 0.80737001 0.27186799
-0.48604199 0.45049 0.42190999
-0.58493203 -0.0148831 0.31608
-0.68298799 0.359503 0.28765801
-0.49180701 0.52890098 0.42190999
-0.31676099 0.51204997 0.42190999
-0.194585 0.25439399 0.40773699
-0.42053601 0.51087499 0.42190999
-0.56088299 0.791951 0.152587
-0.63041598 0.294368 0.39606699
-0.27443001 0.826509 0.35393599
-0.69283098 0.791951 0.463873
-0.254904 0.12476 0.42190999
-0.25939101 0.58261597 0.42190999
-0.62349403 0.103916 0.41274399
-0.40732101 0.52593499 0.42190999
-0.41557401 0.33905599 0.37404299
-0.240247 0.791951 0.407738
-0.677975 0.791951 0.79901499
-0.24960899 0.0080289999 0.089853801
-0.20084301 0.86353803 0.35251901
-0.61615902 0.64345199 0.28765801
-0.270879 0.33905599 0.30856499
-0.32828099 0.791951 0.39590999
-0.27733499 0.82841098 0.78110099
-0.63051802 0.041549899 0.31487101
-0.690319 -0.0145402 0.39862499
-0.58738399 0.80737001 0.32723001
-0.35396099 0.59680802 0.42190999
-0.46697399 0.80737001 0.27861199
-0.192458 0.466775 0.40270999
-0.48113599 0.80737001 0.127057
-0.408149 0.58518499 0.42190999
-0.40736699 0.422456 0.42190999
-0.28620401 0.69299299 0.324213
-0.33544299 0.791951 0.60095298
-0.191146 0.66195703 0.333763
-0.50890797 0.29835701 0.42190999
-0.62604398 0.791951 0.75066799
-0.317895 0.80737001 0.189583
-0.191181 0.31494001 0.395044
-0.63051802 0.37093699 0.32758299
-0.188638 0.82229799 0.381396
-0.24566799 -0.0148831 0.167538
-0.26044399 0.66540498 0.42190999
-0.47583601 0.109317 0.28765801
-0.224962 0.47824401 0.27276599
-0.58406299 0.86144799 0.78110099
-0.218695 0.29919201 0.28765801
-0.47216499 0.80737001 0.20360699
-0.54266202 0.791951 0.40987799
-0.38920099 0.791951 0.49976599
-0.708018 -0.0148831 0.38178101
-0.70133698 0.791951 0.65166801
-0.53386998 0.33145699 0.41340101
-0.52713603 0.182493 0.28765801
-0.456072 0.37641799 0.42190999
-0.62500203 0.80737001 0.83146799
-0.61302298 0.791951 0.651039
-0.63051802 0.043752201 0.28807601
-0.32388699 0.69299299 0.31049401
-0.25216901 0.43223101 0.27353299
-0.69251198 0.791951 0.294072
-0.53180897 0.80737001 0.81154501
-0.220549 0.76754099 0.52990597
-0.218301 0.244551 0.27276599
-0.28714001 0.791951 0.55346602
-0.56208098 0.791951 0.59590697
-0.361269 0.0320145 0.42190999
-0.50967002 0.83099699 0.35393599
-0.25216901 0.0021523701 0.18062501
-0.70580798 0.80737001 0.21396799
-0.230597 0.78552502 0.47385699
-0.54335099 0.80737001 0.173794
-0.69950497 0.33905599 0.386906
-0.361269 0.0320145 0.42190999
-0.29940599 0.791951 0.65133399
-0.54566503 0.791951 0.61491001
-0.38018101 0.80737001 0.24934199
-0.25500301 0.80263501 0.86653697
-0.307118 0.80737001 0.30281699
-0.203096 0.80737001 0.757873
-0.236783 0.791951 0.537907
-0.268866 0.791951 0.66675401
-0.301056 0.68261898 0.28765801
-0.63778502 0.084534302 0.41302401
-0.35375601 0.791951 0.25128901
-0.63051802 0.157179 0.30232599
-0.611718 0.791951 0.480102
-0.38344601 0.17557199 0.28765801
-0.43079701 0.49015999 0.42190999
-0.71240997 0.31561899 0.42160001
-0.62765402 0.791951 0.54923499
-0.665595 0.791951 0.73539698
-0.30574399 0.42233801 0.42190999
-0.252673 0.83076698 0.78110099
-0.63946903 0.56777298 0.4147
-0.22854701 0.76754099 0.0968953
-0.63051802 0.0258669 0.38854599
-0.20084301 0.803662 0.83642298
-0.686647 0.791951 0.426393
-0.69180202 0.0780534 0.42190999
-0.627698 0.791951 0.432731
-0.27225101 0.791951 0.147396
-0.49080199 0.288311 0.28765801
-0.681306 -0.0126535 0.28765801
-0.29025799 0.57314003 0.42190999
-0.26978499 0.22051901 0.28765801
-0.20084301 0.76843202 0.36075199
-0.59392703 0.69066602 0.405485
-0.20084301 0.778211 0.34366801
-0.188638 0.81028497 0.56640399
-0.188638 0.82693303 0.22810601
-0.48249799 0.63375801 0.28765801
-0.558819 0.84038401 0.35393599
-0.215555 0.47500801 0.28081301
-0.461395 0.16068199 0.28765801
-0.221283 0.165042 0.27276599
-0.223919 0.63292801 0.42190999
-0.49668601 0.791951 0.26683
-0.191146 0.49400601 0.387207
-0.285698 0.85790402 0.35393599
-0.32905501 0.791951 0.60961801
-0.43039799 0.69299299 0.36508799
-0.47812101 0.304526 0.42190999
-0.36698601 0.25754201 0.42190999
-0.39388499 0.66789299 0.42175999
-0.63012201 0.791951 0.104868
-0.302468 0.80352402 0.86653697
-0.67186999 0.30945 0.42190999
-0.254783 0.791951 0.71259999
-0.63051802 0.209079 0.29587701
-0.48820999 0.33905599 0.30318701
-0.27633601 0.80737001 0.84100002
-0.29464 0.791951 0.421074
-0.57437199 0.67911601 0.28765801
-0.19556899 0.81737101 0.62916601
-0.421179 0.791951 0.28942201
-0.380546 0.80737001 0.221582
-0.60262799 0.16926999 0.42190999
-0.28455001 0.67874098 0.418511
-0.31673199 0.482124 0.42190999
-0.191146 0.226593 0.33602399
-0.42436701 0.40852699 0.42190999
-0.64100599 0.17888699 0.41604599
-0.51716697 0.117867 0.28765801
-0.199022 0.69299299 0.34729099
-0.209012 0.80737001 0.046448
-0.47373801 0.791951 0.191662
-0.227911 0.45373201 0.28765801
-0.49383301 0.80737001 0.197335
-0.50088698 0.80737001 0.29565299
-0.20084301 0.78404498 0.22596499
-0.70698798 0.34064201 0.40352899
-0.392681 0.791951 0.12333
-0.206274 0.69299299 0.37616801
-0.67083597 -0.0134272 0.40313599
-0.23757701 0.229157 0.28765801
-0.36279199 0.80737001 0.13366701
-0.66386199 0.27238601 0.42190999
-0.25758901 0.26958099 0.42190999
-0.29773799 -0.0148831 0.332396
-0.26041001 0.55032998 0.28765801
-0.66413498 0.80737001 0.82301998
-0.20084301 0.84113801 0.211153
-0.20894399 0.37413099 0.42012501
-0.60957903 0.0071969102 0.28765801
-0.51258498 0.80737001 0.80914599
-0.52631801 0.791951 0.43928301
-0.191146 0.527803 0.39116099
-0.253631 0.15049 0.42190999
-0.36352301 0.80737001 0.28935
-0.25216901 0.4206 0.27421901
-0.45189399 0.80737001 0.276553
-0.188638 0.86249501 0.46747401
-0.37524101 0.56368399 0.28765801
-0.395082 0.329375 0.41533899
-0.63051802 0.68254101 0.34942299
-0.32215399 0.69299299 0.3466
-0.58606303 0.80737001 0.097966
-0.409787 0.33821699 0.40111399
-0.38334101 0.80737001 0.197429
-0.36987501 0.30551001 0.28765801
-0.568331 0.842704 0.78110099
-0.61112601 0.791951 0.350916
-0.275778 0.791951 0.359236
-0.63051802 0.183679 0.38000101
-0.22702099 0.16094901 0.27276599
-0.223355 0.80737001 0.341737
-0.48239401 0.20234101 0.42190999
-0.41850001 0.24959999 0.28765801
-0.2394 0.53303498 0.42190999
-0.447813 0.80737001 0.32181001
-0.61112601 0.791951 0.350916
-0.466501 0.13781001 0.28765801
-0.44373399 0.791951 0.58944702
-0.24066301 0.80737001 0.141167
-0.25550199 0.59676403 0.28765801
-0.226749 0.80737001 0.67293799
-0.46970201 0.30255601 0.42190999
-0.63821203 0.106437 0.41351199
-0.52954501 0.80737001 0.062096201
-0.246096 0.69221002 0.40084401
-0.46526 0.23717301 0.42190999
-0.38014299 0.80737001 0.313366
-0.23456199 0.791951 0.21273901
-0.383277 0.53001302 0.28765801
-0.215555 0.301967 0.28737301
-0.393985 0.80737001 0.14734399
-0.421525 0.60824102 0.28765801
-0.222748 0.76754099 0.650177
-0.47701901 0.80737001 0.084726103
-0.41593301 0.68870598 0.409132
-0.236141 0.791951 0.48010001
-0.58634901 0.27282301 0.42190999
-0.65407699 0.692985 0.394622
-0.40034601 0.510427 0.42190999
-0.67491198 0.47094199 0.42190999
-0.320034 0.791951 0.64004099
-0.611974 0.588386 0.420378
-0.530123 0.249037 0.28765801
-0.640221 0.11497 0.28765801
-0.228999 0.836806 0.77183902
-0.41367501 -0.0148831 0.353856
-0.508757 0.80737001 0.088135101
-0.62703502 0.791951 0.26427901
-0.267405 0.095966302 0.42190999
-0.215555 0.67736298 0.074706003
-0.29531899 0.80737001 0.85761702
-0.472657 0.791951 0.64408797
-0.63015801 0.51717597 0.39871201
-0.62535203 -0.013192 0.40382999
-0.223727 0.69299299 0.091817498
-0.565274 0.85940403 0.78110099
-0.191146 0.29593199 0.38849699
-0.303563 0.80737001 0.13209701
-0.51307797 0.791951 0.634004
-0.27069101 -0.0020373401 0.41766801
-0.552176 0.80737001 0.83875799
-0.400837 0.791951 0.75726497
-0.39787599 0.791951 0.59947199
-0.20091499 -0.0148831 0.369037
-0.22028901 0.19509301 0.28765801
-0.37157801 0.69080001 0.28765801
-0.480322 0.82611299 0.78110099
-0.40312901 0.32167301 0.419985
-0.68803501 0.791951 0.38825899
-0.19131701 0.26447701 0.39710101
-0.50476098 0.47292101 0.42190999
-0.29451001 0.791951 0.51001
-0.65473002 0.48211899 0.42170301
-0.188638 0.82806599 0.29637599
-0.69531399 0.098126799 0.42190999
-0.58316302 0.20232099 0.28765801
-0.3795 0.089383297 0.42190999
-0.68524301 0.19260199 0.42190999
-0.57908398 0.791951 0.34714299
-0.237216 0.113988 0.28765801
-0.68881702 0.085761897 0.28765801
-0.223186 0.207331 0.42190999
-0.53801298 0.42520601 0.28765801
-0.20084301 0.79787701 0.80968601
-0.499964 0.80737001 0.81769103
-0.311786 0.791951 0.78293002
-0.31143799 0.791951 0.83506697
-0.63051802 0.68046802 0.35320699
-0.44284701 0.33774301 0.402715
-0.350898 0.791951 0.75960398
-0.25193501 0.163229 0.28765801
-0.54605401 0.80737001 0.84858799
-0.55722398 0.38658199 0.28765801
-0.63051802 0.64450699 0.305942
-0.191146 0.226593 0.33602399
-0.191146 0.270587 0.31332499
-0.237001 0.791951 0.66142201
-0.638506 0.47952399 0.413847
-0.45064801 0.791951 0.380622
-0.38760999 0.69299299 0.32819799
-0.20084301 0.81294501 0.34085101
-0.52822298 0.791951 0.75235802
-0.29190299 0.80737001 0.26107401
-0.215555 0.68917698 0.059373301
-0.191146 0.41290301 0.370359
-0.20084301 0.79399502 0.38171199
-0.50347197 0.80737001 0.84588498
-0.54554099 0.239014 0.42190999
-0.39467099 0.41750899 0.42190999
-0.62021202 0.791951 0.185238
-0.514763 0.80737001 0.81073499
-0.36110899 0.791951 0.39810801
-0.204596 0.81840301 0.66789901
-0.233146 0.791951 0.26725999
-0.33822799 0.00115313 0.41939199
-0.63051802 0.46454501 0.37621
-0.45765999 0.791951 0.467677
-0.67164898 -0.0148831 0.34027401
-0.54762501 0.270753 0.42190999
-0.61103302 0.80737001 0.167345
-0.33447501 0.80737001 0.78895003
-0.218141 -0.0148831 0.235191
-0.40886599 0.58446401 0.42190999
-0.53064197 0.69299299 0.33613199
-0.58577299 0.791951 0.122175
-0.385892 0.791951 0.16794799
-0.69370598 0.22225501 0.28765801
-0.23153301 0.80737001 0.073418804
-0.51930398 0.77367198 0.86653697
-0.546691 0.33905599 0.38641399
-0.26167399 0.80737001 0.220838
-0.56162298 0.22175001 0.42190999
-0.272001 0.80737001 0.79414803
-0.360825 0.67088902 0.42133501
-0.57754201 -0.0148831 0.30636299
-0.526815 0.80737001 0.830504
-0.63051802 0.119624 0.28781
-0.23544 0.80737001 0.81024498
-0.41576099 0.33874699 0.398458
-0.39016399 0.15547 0.28765801
-0.522735 0.791951 0.089219101
-0.30039701 0.78524101 0.86653697
-0.22843701 0.60412198 0.28765801
-0.61148697 0.69299299 0.35578799
-0.54415101 0.33905599 0.32999301
-0.60495102 0.25967699 0.42179099
-0.50347197 0.80737001 0.84588498
-0.59391397 0.0054206201 0.28765801
-0.57577097 0.29387 0.42190999
-0.49080199 0.288311 0.28765801
-0.46627799 0.48945001 0.42190999
-0.68834102 -0.0148831 0.32599199
-0.34071201 0.552697 0.42190999
-0.20084301 0.804564 0.15031201
-0.191146 0.59770799 0.39153701
-0.50632101 0.25766101 0.28765801
-0.50896198 0.33922201 0.397055
-0.61525899 0.115949 0.41900799
-0.227911 0.45373201 0.28765801
-0.68296498 0.76754099 0.84355098
-0.38502899 -0.0058828099 0.41474101
-0.450066 0.69299299 0.370462
-0.230597 0.77673501 0.64812499
-0.63693601 -0.0148831 0.331581
-0.26710099 0.791951 0.46583399
-0.359519 0.791951 0.12769
-0.30893901 0.33905599 0.30714899
-0.63051802 0.36104 0.33684799
-0.54597902 0.12785199 0.28765801
-0.38100201 0.065931797 0.42190999
-0.54506898 0.791951 0.42608699
-0.70698798 0.34064201 0.40352899
-0.621315 0.791951 0.42649901
-0.338321 0.791951 0.35157701
-0.46024001 0.791951 0.355663
-0.24067201 0.86213398 0.67169201
-0.245821 -0.0148831 0.224435
-0.63141799 0.86565799 0.78110099
-0.191146 0.19725101 0.37528199
-0.640221 0.11497 0.28765801
-0.46286699 0.44293901 0.42190999
-0.254783 0.791951 0.71259999
-0.191146 0.17976899 0.34054101
-0.64279002 0.69299299 0.30381101
-0.26949 0.69299299 0.36262
-0.55149001 0.79532701 0.86653697
-0.240247 0.791951 0.407738
-0.20084301 0.81294501 0.34085101
-0.539235 0.574242 0.28765801
-0.39809901 0.78054702 0.86653697
-0.53393102 0.56546599 0.42190999
-0.46405399 0.791951 0.57636899
-0.466499 0.40646601 0.42190999
-0.62927502 0.791951 0.27687299
-0.20084301 0.79206598 0.27933201
-0.63089401 0.254228 0.39880699
-0.576828 -0.0148831 0.36199799
-0.66848201 0.76754099 0.85760403
-0.30985299 0.80737001 0.150087
-0.52355498 0.43524101 0.28765801
-0.240538 0.508735 0.28765801
-0.349374 0.57497197 0.42190999
-0.45040599 0.80737001 0.29873899
-0.62451202 0.80737001 0.79174203
-0.197934 0.65588403 0.41247401
-0.239757 0.60060698 0.28765801
-0.33645999 0.112216 0.42190999
-0.27988601 0.80737001 0.140091
-0.628613 0.21931501 0.40446201
-0.65997797 0.69299299 0.358859
-0.62760299 0.109444 0.40667501
-0.63051802 0.37093699 0.32758299
-0.26326999 0.791951 0.182309
-0.440119 0.471533 0.42190999
-0.49182501 0.791951 0.30008301
-0.43421599 -0.0148831 0.36773399
-0.531268 0.163444 0.42190999
-0.27434799 0.031358499 0.42190999
-0.348023 0.859873 0.78110099
-0.34103799 0.791951 0.492798
-0.20953099 0.76754099 0.079555303
-0.53133601 0.80737001 0.040048402
-0.20586701 0.76754099 0.12778901
-0.20084301 0.78681201 0.0575874
-0.219953 0.69299299 0.38514999
-0.695876 0.33905599 0.37671101
-0.2315 0.80737001 0.074943498
-0.67272401 0.031242 0.28765801
-0.68415302 0.791951 0.43496901
-0.22577301 0.76754099 0.227323
-0.42505801 0.791951 0.81876999
-0.48753601 0.80737001 0.160016
-0.228707 0.339239 0.28765801
-0.36912799 0.43279701 0.42190999
-0.46921399 0.791951 0.54040301
-0.36300999 0.791951 0.104981
-0.456072 0.37641799 0.42190999
-0.27844501 0.24083 0.42190999
-0.30726999 0.28080499 0.28765801
-0.60807002 0.791951 0.81558102
-0.59924799 0.791951 0.43465301
-0.56956297 0.791951 0.54952598
-0.50581598 0.791951 0.63744903
-0.45376399 0.791951 0.25523201
-0.25216901 0.26102701 0.28366101
-0.21188401 0.45564601 0.42106199
-0.62375498 0.55780703 0.41244599
-0.30306 0.369387 0.28765801
-0.188638 0.80929297 0.56139302
-0.221246 0.80737001 0.205634
-0.66499299 -0.0148831 0.381455
-0.215919 0.83455199 0.71647501
-0.191146 0.18828601 0.380905
-0.28040999 0.83392799 0.78110099
-0.416895 0.80737001 0.23634
-0.58190799 0.49460199 0.42190999
-0.41939101 0.80737001 0.184668
-0.23874 0.39924699 0.27276599
-0.468793 0.080789 0.28765801
-0.53489798 0.55756599 0.42190999
-0.28892201 0.81283402 0.35393599
-0.379397 0.77006203 0.86653697
-0.21040601 0.80737001 0.706999
-0.40790501 0.268343 0.42190999
-0.207711 0.55276799 0.419653
-0.20084301 0.775437 0.51754498
-0.25119501 0.38186499 0.28765801
-0.20084301 0.786991 0.474852
-0.191146 0.177553 0.342011
-0.34233701 0.791951 0.72803098
-0.220549 0.76754099 0.52990597
-0.24067201 0.82574499 0.749632
-0.232225 0.0080289897 0.21443599
-0.41385299 0.691975 0.401851
-0.50967002 0.83099699 0.35393599
-0.20084301 0.78709799 0.064514503
-0.191146 0.127278 0.328352
-0.49080199 0.288311 0.28765801
-0.214991 0.25225899 0.28765801
-0.64570701 0.80737001 0.32447401
-0.46011701 0.69299299 0.32809499
-0.191146 0.67505199 0.31812701
-0.365861 0.17475501 0.42190999
-0.224246 0.80737001 0.059544101
-0.63329297 0.236322 0.406396
-0.382745 0.43129101 0.42190999
-0.667377 0.110809 0.42190999
-0.26692599 0.80737001 0.81306499
-0.26488799 0.171159 0.28765801
-0.191146 -0.00308798 0.34061199
-0.54475498 0.58601999 0.28765801
-0.191146 0.45143101 0.35964099
-0.42223001 0.153396 0.42190999
-0.310619 0.76754099 0.84549397
-0.20292699 0.119099 0.28765801
-0.69513202 -0.0116538 0.28765801
-0.37852401 0.69299299 0.36957699
-0.56662798 0.791951 0.79388201
-0.436643 0.791951 0.22552601
-0.63826901 0.69299299 0.34715599
-0.212632 0.66118199 0.421211
-0.343104 0.791951 0.090200901
-0.188638 0.81504703 0.381567
-0.257828 0.791951 0.182449
-0.23729099 0.25552699 0.27276599
-0.21702 0.215762 0.28765801
-0.219497 0.76754099 0.717237
-0.66276699 0.687132 0.41141501
-0.267315 0.791951 0.456734
-0.230656 -0.0148831 0.150168
-0.45984799 0.109626 0.28765801
-0.39756301 0.791951 0.53602499
-0.58451098 0.791951 0.51537597
-0.194583 0.57189697 0.40773299
-0.27326101 0.33905599 0.31851
-0.37348899 0.78621203 0.83678001
-0.63051802 0.356749 0.29167199
-0.69531399 0.098126799 0.42190999
-0.30791801 0.791951 0.57964498
-0.27759999 0.58373499 0.42190999
-0.504857 0.153586 0.42190999
-0.66628999 0.59154803 0.28765801
-0.449855 0.76754099 0.85250598
-0.316609 0.076255299 0.42190999
-0.221902 0.80737001 0.66329002
-0.29464 0.791951 0.421074
-0.222895 0.83420998 0.69263703
-0.244463 0.791951 0.59735501
-0.25015101 0.80737001 0.83882701
-0.388769 0.142235 0.42190999
-0.20084301 0.77903098 0.60376102
-0.246722 0.791951 0.76210397
-0.46970901 0.80737001 0.34924099
-0.58468097 0.69299299 0.339701
-0.63051802 0.51650298 0.34045699
-0.233549 0.69299299 0.37635699
-0.59123099 0.84686798 0.35393599
-0.40936899 0.229559 0.28765801
-0.65603298 0.773965 0.86653697
-0.24067201 0.80842501 0.68978697
-0.55616099 -0.0148831 0.32748201
-0.20084301 0.76910102 0.52051401
-0.64407402 0.69179702 0.40237501
-0.46275699 0.57490802 0.28765801
-0.69362903 0.76821601 0.86653697
-0.31478 0.130101 0.28765801
-0.490219 0.80737001 0.26812601
-0.47134399 0.80737001 0.85476398
-0.40881899 0.46317801 0.42190999
-0.66866601 0.81121701 0.78110099
-0.69456702 0.791951 0.132348
-0.31617701 0.335233 0.28765801
-0.388473 0.791951 0.33814001
-0.40959799 0.791951 0.25878599
-0.64979398 0.791951 0.51730102
-0.26041001 0.55032998 0.28765801
-0.47621301 0.791951 0.46382999
-0.63051802 0.19086599 0.371701
-0.29121399 0.22204299 0.28765801
-0.44373399 0.791951 0.58944702
-0.43375 0.32937899 0.41533601
-0.321805 0.45131701 0.28765801
-0.32819 0.300735 0.28765801
-0.55722398 0.38658199 0.28765801
-0.218825 0.0080289999 0.113527
-0.228999 0.836806 0.77183902
-0.47075799 0.791951 0.10578
-0.29040301 0.110021 0.42190999
-0.59741098 0.791951 0.23033699
-0.70581001 0.55638802 0.28765801
-0.269393 -0.011073 0.408416
-0.460195 0.83254302 0.78110099
-0.63051802 0.095704801 0.34806699
-0.63051802 0.25756699 0.393089
-0.43581399 0.210574 0.42190999
-0.31673199 0.482124 0.42190999
-0.43432 0.791951 0.34779599
-0.45642099 0.50215697 0.42190999
-0.238518 0.80737001 0.61965299
-0.41687599 0.68995202 0.28765801
-0.33356601 0.791951 0.746153
-0.63428199 0.791951 0.100403
-0.343889 0.146043 0.28765801
-0.21831401 0.76754099 0.73463702
-0.38964999 0.63635403 0.28765801
-0.20084301 0.80205297 0.46879801
-0.69356298 0.33905599 0.32751101
-0.230597 0.78662097 0.663836
-0.57325399 0.805619 0.86653697
-0.230597 0.78007197 0.78301698
-0.20084301 0.78147697 0.53766102
-0.56260699 0.57226801 0.28765801
-0.27434799 0.031358499 0.42190999
-0.41315901 0.80737001 0.83150899
-0.45064801 0.791951 0.380622
-0.188638 0.85679501 0.48866799
-0.56836301 0.80737001 0.35088
-0.63453001 0.070725903 0.28765801
-0.191146 0.133154 0.365318
-0.50575298 0.791951 0.65955102
-0.34126401 0.80737001 0.167152
-0.606861 0.791951 0.28924501
-0.701828 0.36868101 0.28765801
-0.44292501 0.791951 0.419038
-0.63051802 0.589697 0.33149001
-0.492623 0.791951 0.35210699
-0.33878401 0.791951 0.369515
-0.44785199 0.791951 0.22755501
-0.50270897 0.791951 0.14841101
-0.434962 0.791951 0.33571899
-0.27069101 -0.0020373401 0.41766801
-0.55058903 0.69299299 0.29036501
-0.63178903 0.243523 0.40259901
-0.28290901 0.45520499 0.42190999
-0.24161699 0.791951 0.33679801
-0.61343098 0.82533401 0.78110099
-0.215555 -8.3495201e-05 0.191029
-0.64679402 -0.00750591 0.413147
-0.420578 0.80737001 0.20674799
-0.42363101 0.57033598 0.42190999
-0.219818 0.76754099 0.82307303
-0.52886403 0.81252003 0.78110099
-0.40712199 0.692105 0.40137401
-0.63051802 0.60352403 0.34410101
-0.264534 0.80737001 0.342213
-0.327856 0.80737001 0.351924
-0.37935001 0.109813 0.42190999
-0.56026798 0.33905599 0.30734801
-0.35885999 0.69299299 0.343968
-0.188638 0.85690302 0.23397499
-0.495424 0.791951 0.78537899
-0.230597 0.79110801 0.65467
-0.20084301 0.803662 0.83642298
-0.63045102 0.239619 0.39552501
-0.40724999 0.43451399 0.42190999
-0.325921 0.77071702 0.83678001
-0.69967502 -0.0139633 0.40152001
-0.26908299 0.80737001 0.161697
-0.56078798 0.80737001 0.82663703
-0.45146701 0.791951 0.46777099
-0.70463598 0.33905599 0.36114299
-0.28800601 -0.0148831 0.34485599
-0.63051802 0.61621702 0.38195801
-0.68386501 0.80737001 0.108784
-0.52133399 0.28753799 0.28765801
-0.57013798 0.791951 0.52214098
-0.35945299 0.27058801 0.28765801
-0.46921399 0.791951 0.54040301
-0.488433 0.791951 0.63157302
-0.20167799 0.76754099 0.61032099
-0.63051802 0.0748941 0.39372
-0.69093698 0.402924 0.42190999
-0.63051802 0.61444497 0.31045601
-0.69972199 0.505153 0.28765801
-0.56918699 0.078820303 0.28765801
-0.56278998 0.77541 0.86653697
-0.334584 0.791951 0.447092
-0.249126 0.791951 0.081219897
-0.27225101 0.791951 0.147396
-0.55741 0.791951 0.26392999
-0.30618599 0.791951 0.54372901
-0.66026902 0.80737001 0.26738399
-0.28016999 0.43258101 0.28765801
-0.223727 0.69299299 0.091817498
-0.26076701 0.80737001 0.109753
-0.33018401 0.69299299 0.379446
-0.32470101 0.80737001 0.26164299
-0.63306701 0.80737001 0.22938401
-0.385728 0.39074901 0.42190999
-0.68137401 0.33904901 0.39461699
-0.47373801 0.791951 0.191662
-0.31478 0.130101 0.28765801
-0.62862903 0.69299299 0.31531101
-0.41857499 0.29222101 0.42190999
-0.24415 0.69278502 0.39765999
-0.188638 0.84384799 0.363089
-0.62541598 0.80737001 0.14311001
-0.233013 0.791951 0.186059
-0.30408099 0.791951 0.74618202
-0.56902099 -0.01223 0.40614399
-0.711178 -0.0148831 0.29723099
-0.234927 0.85081798 0.74425501
-0.52086997 0.078685001 0.28765801
-0.238895 -0.0148831 0.144723
-0.68283802 0.023215201 0.28765801
-0.59953499 0.80737001 0.106013
-0.56932497 0.48042101 0.42190999
-0.40856799 0.791951 0.27068299
-0.63051802 0.54813898 0.351753
-0.191146 0.66195703 0.333763
-0.230597 0.78792697 0.31462401
-0.54579997 0.791951 0.44240901
-0.26224199 0.80737001 0.84413302
-0.66297901 0.80737001 0.037834201
-0.24067201 0.81770599 0.62489498
-0.231782 0.790106 0.86653697
-0.49383301 0.80737001 0.197335
-0.56338501 0.119271 0.28765801
-0.26736 0.791951 0.30849499
-0.244764 0.33905599 0.307531
-0.249623 0.69299299 0.31775901
-0.194158 0.28365001 0.406872
-0.352698 0.80737001 0.128527
-0.343806 0.791951 0.061806899
-0.48769501 0.26268601 0.42190999
-0.205266 0.55212402 0.418446
-0.240218 0.17660999 0.27276599
-0.35411701 0.44600299 0.42190999
-0.33755699 0.42041901 0.42190999
-0.191146 0.194655 0.29911199
-0.355425 0.80737001 0.27195001
-0.191146 0.529091 0.308525
-0.20084301 0.79307801 0.650482
-0.31686899 0.80737001 0.251021
-0.25368401 0.66894001 0.42169201
-0.494827 0.791951 0.407184
-0.67933202 0.80737001 0.250119
-0.281652 0.80737001 0.138335
-0.64217001 0.56513798 0.28765801
-0.66046798 0.0075680199 0.28765801
-0.546691 0.33905599 0.38641399
-0.33645999 0.112216 0.42190999
-0.29552001 0.138173 0.42190999
-0.33645999 0.112216 0.42190999
-0.323948 0.21563201 0.42190999
-0.63051802 -0.0080144601 0.34742501
-0.32841599 0.49224699 0.28765801
-0.188638 0.81691998 0.394519
-0.640356 0.791951 0.70255297
-0.394288 0.791951 0.20463599
-0.468564 0.80737001 0.28450099
-0.20084199 1.22934 0.59802997
-0.61167097 1.10115 0.35393599
-0.24067201 0.91849899 0.65999198
-0.200784 1.6640199 0.65154099
-0.336665 1.74577 0.78110099
-0.49220899 0.96039599 0.35393599
-0.19170301 1.71684 0.59802997
-0.188638 1.53514 0.59660798
-0.24067201 1.4293 0.677715
-0.21998399 1.82994 0.73391402
-0.188638 1.55591 0.52415299
-0.234854 1.3370399 0.77025402
-0.24067201 1.22785 0.69588798
-0.25172499 1.22857 0.78110099
-0.50463599 1.18979 0.78110099
-0.64797598 1.73584 0.78110099
-0.69795799 1.73063 0.35393599
-0.188638 1.8655 0.42523801
-0.20084301 1.768 0.21781699
-0.64792198 1.15599 0.78110099
-0.41681001 0.92939597 0.78110099
-0.67094499 1.16388 0.78110099
-0.24067201 1.61335 0.72683799
-0.23844799 1.43624 0.77933699
-0.22352099 1.4197 0.59802997
-0.50909698 1.22382 0.35393599
-0.21922299 0.94452101 0.73065197
