# .PCD v0.7 - Point Cloud Data file format
VERSION 0.7
FIELDS x y z
SIZE 4 4 4
TYPE F F F
COUNT 1 1 1
WIDTH 1650
HEIGHT 1
VIEWPOINT 0 0 0 1 0 0 0
POINTS 1650
DATA ascii
-2.3561599 2.50562 0.28624201
-1.8613 2.5076799 0.35393599
-1.9095 2.79672 0.40402099
-1.9095 2.5989499 0.57022101
-1.9095 2.7976 0.50905102
-2.70239 2.7033401 0.64684898
-2.2206099 2.77334 0.079623602
-1.9095 2.5484099 0.38749501
-2.2839701 2.53848 0.74448699
-2.68627 2.50562 0.213074
-1.91107 2.06739 0.462293
-2.2042 2.5583501 0.64684898
-2.5694001 2.5178199 0.233603
-2.17854 2.60689 0.192056
-2.3211 2.50562 0.37742701
-2.17854 2.7282901 0.072448201
-2.40639 2.50562 0.214773
-2.41962 2.50562 0.58098298
-2.27355 2.5857899 0.60383999
-1.91046 2.06739 0.42004699
-2.5136199 2.86168 0.079623602
-2.21135 2.7295301 0.60383999
-2.1443701 2.50562 0.62982202
-1.73904 2.51596 0.35393599
-2.3011401 2.5826199 0.64684898
-2.13553 2.5180099 0.56329501
-1.86408 2.36621 0.35393599
-1.7875 2.8260701 0.76889902
-1.9095 2.2467899 0.558662
-1.8690799 2.5262799 0.35393599
-1.9095 2.78636 0.38578001
-1.9095 2.8282499 0.52497399
-1.86967 2.2581699 0.63163102
-1.9095 2.2888701 0.45056701
-1.9095 2.6956899 0.58748603
-1.90496 2.8517699 0.59802997
-2.57601 2.6875601 0.60383999
-2.2838199 2.8631699 0.64684898
-2.13553 2.6347899 0.071551301
-2.44467 2.50562 0.061473299
-2.39942 2.50562 0.405094
-2.2702501 2.7074299 0.64684898
-2.32814 2.50562 0.276618
-2.6133399 2.50562 0.133039
-1.78351 2.4408801 0.35393599
-2.1760001 2.50562 0.45733899
-1.86967 1.87614 0.69114798
-2.37216 2.50562 0.057656299
-2.40623 2.50562 0.63499498
-1.8493201 2.8658199 0.35393599
-2.31861 2.50562 0.58007002
-2.5525401 2.6319201 0.74448699
-2.13553 2.8369901 0.498229
-1.8954 2.63639 0.35393599
-2.42802 2.49439 0.26850399
-2.2737801 2.6645899 0.60383999
-2.6647501 2.7201099 0.60383999
-2.5824599 2.5100601 0.28258601
-2.2808499 2.7293799 0.60383999
-1.85537 2.7060699 0.76889902
-1.86967 2.7946301 0.67512101
-2.21874 2.5817001 0.60383999
-2.59852 2.50562 0.0783685
-2.3575599 2.6082201 0.60383999
-1.88036 1.96181 0.77138799
-2.13553 2.5689499 0.27510601
-2.17854 2.64976 0.217107
-1.76527 2.7474201 0.76889902
-2.21401 2.7256401 0.64684898
-2.2179101 2.6101799 0.64684898
-1.89579 2.0492201 0.59802997
-1.86967 2.2552299 0.63291502
-2.2366099 2.7045901 0.079623602
-2.17854 2.5318 0.14699499
-2.2757199 2.50562 0.247079
-2.3247299 2.50562 0.61022002
-1.86967 2.6461101 0.73544902
-1.86967 2.47715 0.73907799
-1.77183 2.01633 0.35393599
-1.8262399 2.5534999 0.76889902
-1.86967 2.82792 0.70899701
-2.5676301 2.5178199 0.218988
-2.6584699 2.50562 0.31294799
-1.9095 2.1647301 0.46473399
-2.4208901 2.5157101 0.162034
-2.17854 2.68538 0.30126801
-1.85657 2.66256 0.35393599
-2.2084301 2.50562 0.12142
-2.5294499 2.5258999 0.74448699
-1.801 1.99806 0.78110099
-2.1815801 2.50562 0.64664102
-2.1537399 2.50562 0.64723802
-1.9095 2.4844301 0.48440099
-1.82654 2.01387 0.35393599
-2.47122 2.50562 0.203499
-2.62466 2.50562 0.051495399
-2.17854 2.68062 0.063688502
-1.92171 1.88828 0.55852401
-2.4433601 2.5178199 0.24969301
-1.92171 2.06019 0.51188898
-1.9095 2.42572 0.48821101
-1.87114 1.92966 0.76924098
-1.9095 2.28422 0.38123
-1.80779 1.95434 0.78110099
-1.7154599 2.4672301 0.35393599
-2.13553 2.51231 0.61593997
-1.90983 1.96503 0.65038002
-1.9022 1.88267 0.68310899
-2.13553 2.5190899 0.243948
-1.9095 2.5785899 0.47665799
-2.5430701 2.5178199 0.210999
-1.8796099 2.16134 0.59802997
-2.17854 2.78263 0.052781999
-2.17854 2.6443801 0.25034899
-1.8889101 2.5350699 0.59802997
-1.86967 2.0081301 0.65119302
-1.9095 2.5171001 0.402715
-1.86988 2.5246501 0.59802997
-1.86967 2.3847899 0.61261201
-2.6021199 2.50562 0.30536199
-1.9095 2.3123901 0.58135402
-2.4264901 2.5450301 0.64684898
-2.2156701 2.69134 0.74448699
-2.2231901 2.50562 0.115587
-2.6452601 2.6038799 0.74448699
-2.17854 2.51297 0.37772501
-1.86269 2.5596499 0.35393599
-2.3215899 2.77985 0.079623602
-2.5806701 2.50419 0.125246
-1.86967 2.55094 0.67613798
-2.17854 2.55002 0.42371601
-2.6086099 2.5699 0.74448699
-1.9095 2.19169 0.48606601
-1.78107 2.63256 0.35393599
-2.22802 2.50562 0.27219599
-2.17854 2.8450999 0.52712101
-1.76132 2.6359899 0.76889902
-2.5458801 2.8275101 0.74448699
-2.13553 2.6587 0.59719002
-2.49511 2.4988201 0.39955899
-2.26057 2.50562 0.40218401
-2.2003901 2.65042 0.64684898
-1.89863 1.92909 0.64468098
-2.13553 2.60761 0.136537
-1.86967 2.4862199 0.74499398
-1.9095 2.51653 0.51890999
-2.5180099 2.6717899 0.60383999
-2.4677601 2.4975801 0.52000701
-2.13553 2.6447501 0.15965199
-2.6126699 2.8540201 0.74448699
-2.13553 2.6359 0.18335
-2.6668401 2.50562 0.111945
-1.9095 2.6347001 0.57265002
-2.1759801 2.50562 0.506127
-2.13553 2.70274 0.222939
-2.2121899 2.6373899 0.60383999
-2.17854 2.55002 0.42371601
-2.29741 2.58219 0.60383999
-2.19401 2.50562 0.474996
-2.5815499 2.8433399 0.74448699
-2.4137299 2.50562 0.42355299
-2.5032001 2.5178199 0.27196601
-1.9095 2.8668201 0.55209798
-2.3661101 2.5762899 0.079623602
-1.86967 2.8082099 0.64649701
-1.9095 2.5952699 0.56409699
-1.7237 1.90209 0.35393599
-2.17854 2.5126801 0.42216799
-2.13553 2.5325899 0.33014801
-2.49459 2.8157001 0.079623602
-2.13553 2.5899999 0.175606
-1.86967 2.55972 0.65492201
-1.90031 2.1356201 0.59802997
-2.4435 2.6259501 0.60383999
-1.87499 2.6139801 0.35393599
-2.5318799 2.5666101 0.74448699
-1.92171 1.9482501 0.528144
-2.22158 2.50562 0.35691801
-2.17834 2.50562 0.27006701
-2.17854 2.5193601 0.321491
-2.3429501 2.6692801 0.079623602
-1.90479 2.06739 0.658728
-2.59027 2.7379999 0.60383999
-2.3003299 2.74246 0.74448699
-2.1893899 2.59483 0.60383999
-2.6900301 2.50562 0.245167
-2.2681301 2.6872101 0.74448699
-2.17854 2.74913 0.338287
-1.77233 2.82513 0.35393599
-2.5601699 2.7830601 0.079623602
-2.19783 2.50562 0.27053899
-1.75613 1.98121 0.35393599
-2.13553 2.7466199 0.166494
-1.86967 2.4664099 0.655698
-1.71605 2.6961401 0.35393599
-2.25577 2.50562 0.44177401
-2.27617 2.6079099 0.60383999
-1.89271 1.93284 0.723849
-2.17854 2.60484 0.10199
-1.86967 2.3856699 0.75432903
-2.13553 2.7270801 0.33017701
-2.30392 2.50562 0.096551597
-2.56142 2.50562 0.193354
-1.86967 2.6963699 0.66578799
-1.92171 1.9067 0.58092201
-2.36132 2.84692 0.079623602
-2.45172 2.51793 0.60383999
-1.86967 2.5682199 0.73929697
-2.13553 2.56214 0.43303999
-2.5604899 2.7756801 0.60383999
-1.72326 1.97381 0.78110099
-2.62078 2.50562 0.20837601
-1.8684 2.66066 0.35393599
-2.3315699 2.50562 0.56627899
-1.8092999 2.1931601 0.35393599
-1.92171 2.04653 0.427614
-2.6367199 2.50562 0.136482
-1.89864 2.0557699 0.59802997
-2.54509 2.7049999 0.64684898
-1.8248 2.3672199 0.35393599
-2.21137 2.8650501 0.079623602
-1.86967 2.0942199 0.752958
-1.92171 2.0088201 0.46246099
-2.5890801 2.73915 0.64684898
-2.6898899 2.71452 0.60383999
-1.84294 2.80758 0.76889902
-1.86967 1.90017 0.74337
-2.13553 2.8575699 0.120092
-2.3698001 2.50562 0.40061
-1.9095 2.44384 0.57401198
-1.85888 2.15783 0.35393599
-2.13553 2.5627 0.73182601
-1.9095 2.3257201 0.41629699
-2.5553401 2.7709501 0.079623602
-2.6651299 2.7353101 0.60383999
-1.9095 2.1920099 0.450463
-1.75405 1.93645 0.78110099
-2.2793 2.8014901 0.64684898
-2.13553 2.55109 0.080295399
-2.6447899 2.50562 0.063717797
-2.2737 2.50562 0.239896
-2.5188701 2.5079501 0.39955899
-1.9095 2.1920099 0.450463
-2.3517699 2.7170899 0.64684898
-2.1909499 2.6647201 0.74448699
-2.24173 2.7158899 0.079623602
-1.90154 2.8269 0.35393599
-2.5603199 2.83971 0.74448699
-2.17855 2.65137 0.60383999
-2.23788 2.62411 0.079623602
-2.5276699 2.72949 0.74448699
-2.53089 2.50562 0.314138
-1.90281 2.30843 0.35393599
-1.75682 2.85162 0.35393599
-1.9095 2.3756199 0.38021699
-1.86967 2.17417 0.75770199
-1.8867 2.54164 0.35393599
-1.86967 2.7107601 0.73471498
-1.9095 2.7921 0.420526
-2.6874399 2.6006999 0.60383999
-2.4452 2.5178199 0.412994
-1.82864 2.4814 0.76889902
-1.85491 2.2583799 0.35393599
-2.24224 2.6283 0.079623602
-1.86967 2.7446101 0.66748899
-2.17854 2.6254301 0.109945
-1.9095 2.2037201 0.40059701
-1.9095 2.2708001 0.36594999
-1.80128 2.56652 0.76889902
-1.9095 2.29723 0.464508
-2.3161399 2.61531 0.079623602
-2.13553 2.66974 0.72768402
-2.67554 2.50562 0.236624
-2.39922 2.50562 0.52260798
-2.33305 2.51213 0.64684898
-2.13553 2.56394 0.45994899
-2.2774601 2.5265701 0.710926
-1.86967 1.93132 0.64599103
-1.8473901 2.8029399 0.76889902
-1.9095 2.1070001 0.454963
-1.81037 2.7667999 0.35393599
-2.3763299 2.50562 0.63970298
-1.73804 2.20612 0.35393599
-1.86967 2.5237899 0.75969499
-1.85791 2.84289 0.76889902
-2.13553 2.55109 0.43667299
-2.2913301 2.8066299 0.74448699
-1.81792 2.76175 0.76889902
-2.36338 2.5653901 0.60383999
-2.17854 2.6605301 0.248564
-2.5290301 2.7010601 0.64684898
-1.87655 2.46527 0.59802997
-1.86967 1.90404 0.75905299
-2.47892 2.50562 0.46773201
-1.92171 1.9067 0.58092201
-1.86967 1.93973 0.77881598
-1.86967 2.24001 0.647098
-1.86967 2.6027801 0.751302
-2.2600999 2.6569901 0.60383999
-2.4679201 2.70595 0.60383999
-1.85537 2.7060699 0.76889902
-2.2637701 2.7727201 0.079623602
-2.4223001 2.4934101 0.13112301
-2.13553 2.82899 0.56100601
-2.40468 2.50562 0.129482
-1.91195 1.92452 0.641312
-2.15992 2.50562 0.286769
-1.9095 2.09448 0.41230601
-2.13553 2.6559801 0.27567601
-2.3475201 2.50562 0.42709401
-2.13553 2.66781 0.200583
-2.13553 2.7671199 0.154808
-1.86967 2.1815801 0.63157398
-2.17854 2.5130501 0.24724901
-2.17854 2.79808 0.119322
-2.17854 2.71913 0.13307101
-2.67435 2.50562 0.083813898
-1.90683 2.6003699 0.35393599
-2.6881001 2.59115 0.74448699
-2.17854 2.64393 0.125488
-1.9095 2.4335999 0.475631
-1.81363 2.6884501 0.35393599
-2.2236199 2.6835999 0.74448699
-1.9095 2.8274701 0.50340903
-2.13553 2.5834899 0.068101801
-2.4585299 2.50562 0.58716601
-2.17854 2.5841801 0.238049
-2.15817 2.50562 0.47539699
-1.84841 2.2520499 0.35393599
-2.13553 2.66921 0.343878
-2.38747 2.6796999 0.60383999
-1.9095 2.0836699 0.467682
-1.87313 1.94348 0.754067
-2.3533101 2.7710199 0.079623602
-2.17854 2.5111201 0.224713
-2.13553 2.75302 0.151362
-1.81287 2.5118501 0.35393599
-1.7397 2.72417 0.35393599
-2.4772699 2.76528 0.079623602
-1.9095 2.3061199 0.36428499
-2.17854 2.6524799 0.73537397
-2.38936 2.50562 0.74043697
-1.86967 2.7783899 0.60902202
-1.91434 1.90701 0.63103199
-1.92171 1.92638 0.49657899
-2.64469 2.50562 0.0868439
-1.90881 2.6029501 0.35393599
-1.86967 2.1870699 0.714921
-2.48068 2.62749 0.60383999
-2.5782599 2.61222 0.74448699
-2.2594099 2.5592799 0.74448699
-2.13553 2.67167 0.049219299
-1.86967 2.52987 0.62918103
-2.26138 2.5997601 0.74448699
-2.13553 2.82915 0.121173
-1.79361 2.70734 0.76889902
-2.44136 2.79229 0.74448699
-1.9095 2.07131 0.36107501
-2.68571 2.67556 0.60383999
-2.17854 2.76548 0.58138001
-2.39942 2.50562 0.405094
-1.908 1.9747601 0.60446399
-2.2790999 2.51087 0.710926
-2.3745699 2.50562 0.17285299
-2.1759601 2.50562 0.38148001
-2.1998701 2.50562 0.124292
-2.17854 2.71701 0.278918
-2.5713999 2.85253 0.079623602
-1.86967 2.3838501 0.62044001
-2.17854 2.6203301 0.10665
-2.69906 2.6866901 0.64684898
-2.17854 2.7051599 0.221063
-2.38747 2.6796999 0.60383999
-2.17854 2.5811701 0.564165
-2.29105 2.7776101 0.60383999
-1.90303 2.1698899 0.59802997
-2.30898 2.6105001 0.60383999
-1.9095 2.81355 0.39988399
-1.7248501 2.80826 0.76889902
-1.86967 2.6440401 0.76569301
-2.17854 2.60256 0.36404401
-2.4486401 2.50562 0.305271
-2.17854 2.5144701 0.084800802
-1.88963 2.7627101 0.59802997
-1.88697 1.99683 0.69468403
-2.6900699 2.72632 0.60383999
-2.2780299 2.6383901 0.079623602
-2.3060701 2.7081399 0.64684898
-2.17854 2.5409801 0.192765
-2.52828 2.7207 0.74448699
-1.88963 2.7627101 0.59802997
-2.2873099 2.6466501 0.079623602
-2.3054199 2.50562 0.29059899
-1.76481 2.4407499 0.76889902
-2.6352501 2.50562 0.184727
-1.89347 1.89907 0.59802997
-1.9095 2.26882 0.46282899
-1.92171 1.94346 0.47153899
-1.86967 2.56587 0.70690799
-2.13553 2.56657 0.63138002
-1.9095 2.2467799 0.52568299
-1.9095 2.51753 0.448948
-1.86967 2.7676001 0.61857802
-2.63609 2.69154 0.60383999
-1.82471 2.7298901 0.35393599
-1.86967 1.90017 0.74337
-2.306 2.5452099 0.710926
-1.9095 2.5401499 0.38373199
-2.37274 2.50562 0.71763301
-2.1558399 2.50562 0.168909
-1.87685 2.2425001 0.59802997
-2.4951501 2.50562 0.71324003
-1.76132 2.6359899 0.76889902
-1.89318 2.0286701 0.72183698
-2.2165799 2.56107 0.74448699
-2.4212699 2.5178199 0.36959499
-2.4391301 2.50562 0.32309601
-1.9101 1.88967 0.59802997
-1.86915 2.4452701 0.35393599
-1.77742 2.5546899 0.35393599
-1.89985 2.6431601 0.35393599
-1.86967 2.70503 0.636675
-1.9095 2.5973699 0.54556203
-1.90501 1.95102 0.67106998
-1.89886 1.90712 0.69744802
-2.2565401 2.73195 0.74448699
-1.9095 2.8060601 0.58499199
-2.2623401 2.5935299 0.079623602
-2.5908599 2.50562 0.224985
-2.53302 2.7686 0.74448699
-2.13553 2.6887701 0.111368
-1.89903 2.63167 0.35393599
-2.6126699 2.8540201 0.74448699
-2.6092601 2.5353601 0.74448699
-1.9095 2.7792399 0.50950903
-2.17854 2.6100099 0.55729502
-1.9095 2.72789 0.43229499
-2.2174799 2.50562 0.41799
-1.9095 2.54316 0.37406999
-2.6086099 2.50562 0.17791
-2.28513 2.50562 0.230461
-1.74225 2.6637001 0.35393599
-1.77519 2.45384 0.76889902
-2.5462699 2.50648 0.74448699
-1.9148901 2.0260201 0.59928697
-1.77135 2.78843 0.35393599
-2.13553 2.57564 0.26127499
-2.13553 2.74278 0.173371
-2.29143 2.5387399 0.64684898
-1.87968 2.0331099 0.77122802
-1.8023 2.0195899 0.78110099
-2.58303 2.50562 0.24097501
-2.2847199 2.75664 0.74448699
-2.1956999 2.6914001 0.74448699
-2.65149 2.7688999 0.74448699
-1.86967 2.82792 0.70899701
-2.1748199 2.50562 0.126945
-2.17854 2.69186 0.149414
-2.69331 2.6305399 0.60383999
-2.20733 2.50562 0.35165301
-2.1820099 2.50562 0.35464701
-2.13553 2.62728 0.62897599
-2.2389801 2.50562 0.41081601
-2.13553 2.5640199 0.15537401
-2.2239299 2.85746 0.079623602
-1.79353 2.51566 0.35393599
-1.83313 2.4400201 0.35393599
-2.5712099 2.7400401 0.74448699
-2.5619299 2.7052 0.60383999
-1.8920701 1.99122 0.67284
-2.33463 2.50562 0.38988101
-1.8521301 2.39502 0.35393599
-1.86967 2.4507999 0.61200601
-2.1960001 2.65326 0.64684898
-2.2528501 2.50562 0.71317798
-2.405 2.50634 0.079623602
-2.1586699 2.5101399 0.710926
-1.77222 2.7695301 0.35393599
-1.77519 2.45384 0.76889902
-1.92171 1.92638 0.49657899
-2.22981 2.5550699 0.72602999
-2.32444 2.5806401 0.60383999
-2.21383 2.50562 0.60866398
-2.2674301 2.62394 0.64684898
-2.17854 2.85466 0.46164399
-1.9031399 2.59952 0.59802997
-1.9095 2.2147 0.593584
-2.13553 2.54878 0.383396
-1.9095 2.2344501 0.35857201
-2.39569 2.50562 0.51895899
-2.5458801 2.8275101 0.74448699
-1.9095 2.08933 0.54446501
-1.7213 2.6875899 0.76889902
-2.13553 2.5925601 0.19781899
-1.8647799 2.62798 0.35393599
-2.17854 2.6733 0.213006
-1.9095 2.30687 0.42061299
-1.7625999 2.02321 0.78110099
-1.8131599 2.61415 0.35393599
-1.83825 2.80966 0.35393599
-2.2432401 2.5774801 0.079623602
-2.7023301 2.85552 0.74448699
-1.86816 2.3081701 0.35393599
-2.17854 2.77125 0.057603899
-2.54846 2.85777 0.079623602
-2.1800699 2.6593599 0.079623602
-2.38326 2.83903 0.079623602
-1.8942699 2.2778599 0.59802997
-1.8437901 2.55075 0.76889902
-2.1373301 2.5907099 0.710926
-1.86967 2.0014701 0.60583401
-2.13553 2.6467099 0.31880799
-2.19348 2.50562 0.57373101
-1.88902 2.0594399 0.73964602
-1.88183 1.98025 0.71675301
-1.86967 2.8101499 0.74139899
-2.2177601 2.6909299 0.60383999
-1.76266 2.6233699 0.35393599
-2.56252 2.7034299 0.64684898
-1.88261 1.98884 0.76714802
-2.13553 2.7128201 0.60790902
-2.27507 2.5862 0.74448699
-2.68543 2.7514999 0.60383999
-2.4917901 2.85044 0.079623602
-1.9095 2.10606 0.36863899
-2.3334999 2.6653099 0.079623602
-2.29388 2.6927199 0.079623602
-2.13553 2.60904 0.27903599
-2.13553 2.5506999 0.31208
-1.92171 2.0253401 0.44283399
-2.13553 2.6112299 0.249915
-2.3150699 2.77337 0.079623602
-2.23722 2.58483 0.079623602
-2.26595 2.80621 0.079623602
-2.49511 2.4988201 0.39955899
-1.8219 2.59322 0.76889902
-1.8560801 2.23053 0.35393599
-2.2328501 2.8545799 0.079623602
-1.9095 2.5341699 0.53619897
-2.4509301 2.7967701 0.079623602
-1.74176 2.6828401 0.76889902
-1.92171 1.91794 0.56440902
-2.5141001 2.50562 0.33586299
-2.13553 2.52719 0.165032
-2.43835 2.5178199 0.371387
-2.5413201 2.50562 0.19690201
-1.86075 2.1594701 0.35393599
-2.3377199 2.50562 0.070089497
-1.84849 2.47066 0.35393599
-2.51035 2.6436701 0.60383999
-1.8264199 2.1259799 0.35393599
-2.4208901 2.5165 0.52643901
-2.32342 2.50562 0.45078301
-1.78803 1.87817 0.78110099
-1.86967 1.937 0.602521
-1.82637 2.1491499 0.35393599
-2.51893 2.6710801 0.64684898
-2.3961201 2.7189901 0.079623602
-2.43379 2.4977701 0.53277898
-2.13553 2.5480399 0.60664099
-1.9095 2.8189299 0.55104899
-2.61011 2.8496599 0.079623602
-2.51125 2.50562 0.71258903
-2.13553 2.5506999 0.31208
-2.13553 2.5432501 0.51293701
-2.5011101 2.7938001 0.079623602
-2.3768201 2.7369599 0.079623602
-2.1556301 2.5631001 0.74448699
-1.87783 1.88642 0.774629
-2.5806701 2.50419 0.125246
-2.1758001 2.6293099 0.64684898
-2.17553 2.6406901 0.710926
-2.17854 2.5756199 0.28476399
-2.25932 2.5974901 0.60383999
-2.13553 2.81321 0.111318
-1.72326 1.97381 0.78110099
-2.67941 2.5903201 0.64684898
-1.82331 2.6119201 0.76889902
-1.86967 1.99914 0.60853601
-2.6465199 2.50562 0.082963802
-1.9095 2.2708001 0.36594999
-2.3600099 2.8167801 0.74448699
-1.9095 2.18418 0.54107797
-1.86967 2.7446101 0.66748899
-2.2467301 2.5722599 0.74448699
-1.77674 2.4596601 0.76889902
-2.3011401 2.5826199 0.64684898
-2.4279699 2.49788 0.53277898
-2.64609 2.52441 0.74448699
-1.86967 2.55972 0.65492201
-1.71421 1.8947999 0.78110099
-1.86967 2.5814199 0.69071001
-2.13553 2.67167 0.049219299
-1.91793 1.99125 0.59802997
-1.9095 2.08603 0.58425897
-2.25017 2.66361 0.60383999
-1.7125 1.95858 0.35393599
-2.1421399 2.50562 0.46605799
-2.28321 2.51758 0.710926
-1.86967 2.62852 0.71851897
-1.88474 2.7385399 0.59802997
-1.9095 2.3970599 0.39830101
-2.58304 2.6636 0.74448699
-2.16869 2.50562 0.665232
-1.9095 2.15837 0.43628299
-2.68627 2.50562 0.213074
-2.1440001 2.5550699 0.656555
-2.13553 2.5190899 0.243948
-1.82832 2.2497499 0.35393599
-2.47802 2.5123701 0.26850399
-1.9043 2.5695701 0.59802997
-2.4136 2.50562 0.391974
-2.3352399 2.7998199 0.079623602
-1.9095 2.75857 0.41238001
-2.3371301 2.50562 0.730533
-2.31127 2.7368801 0.64684898
-1.9095 2.83654 0.400435
-1.7325799 2.5461299 0.35393599
-2.6653199 2.50562 0.172391
-1.7668101 2.5662501 0.35393599
-2.5709801 2.6893001 0.64684898
-2.2679999 2.50562 0.387851
-2.44136 2.79229 0.74448699
-2.29421 2.6459301 0.64684898
-2.25577 2.50562 0.44177401
-2.5479801 2.50562 0.73923999
-2.17854 2.69592 0.104982
-1.86967 2.7246599 0.638695
-1.75948 2.1526799 0.35393599
-1.86967 2.7246599 0.638695
-2.2773199 2.72914 0.079623602
-1.9095 2.4800601 0.44419399
-2.17854 2.5112801 0.56136501
-2.6428299 2.5237501 0.74448699
-2.34918 2.8412199 0.74448699
-1.86967 2.3827901 0.64457798
-2.40025 2.50562 0.118536
-2.17854 2.6269701 0.26833001
-2.2806201 2.5464201 0.710926
-1.8695101 2.5706401 0.35393599
-2.17854 2.64976 0.217107
-2.13553 2.64433 0.082663901
-2.6186199 2.5208099 0.079623602
-2.5780101 2.50562 0.183084
-2.17854 2.55374 0.20703401
-1.7809401 2.06389 0.35393599
-1.9095 2.4391999 0.373988
-2.17854 2.82041 0.58146399
-2.53105 2.5418 0.74448699
-2.17854 2.5111201 0.224713
-1.9095 2.12274 0.57251197
-2.2920101 2.6245699 0.60383999
-2.5267301 2.5178199 0.171141
-2.57111 2.7226 0.64684898
-2.26933 2.5165 0.710926
-2.64079 2.50562 0.73835599
-2.13553 2.7141199 0.321612
-1.86967 2.6963699 0.66578799
-2.6475 2.50562 0.076734401
-1.9095 2.50948 0.593503
-1.9095 2.4437301 0.456047
-1.86967 2.3422 0.62980598
-2.2121899 2.6373899 0.60383999
-2.3269601 2.50562 0.39809099
-1.9095 2.79882 0.52130198
-2.35938 2.50562 0.73421502
-1.86967 1.9354399 0.73911101
-1.9095 2.4022801 0.479965
-1.86967 2.41065 0.68583298
-1.9095 2.2372601 0.35864601
-1.9095 2.57482 0.46472499
-1.82637 2.1491499 0.35393599
-1.9095 2.6951499 0.455836
-1.90916 2.67348 0.35393599
-2.3961201 2.7189901 0.079623602
-2.58304 2.6636 0.74448699
-1.77372 2.60864 0.76889902
-1.86967 2.18098 0.66574401
-1.86967 2.5712399 0.66601199
-2.3878 2.6598201 0.60383999
-2.6600101 2.61257 0.74448699
-2.35304 2.55248 0.64684898
-2.6953001 2.50562 0.29188001
-1.90574 2.0600901 0.61418998
-1.785 2.3213 0.35393599
-1.88509 1.99792 0.702775
-2.3722401 2.50562 0.228945
-1.92171 1.9177901 0.53154802
-1.8592499 2.5464599 0.35393599
-1.90189 2.5192001 0.35393599
-1.88399 2.0265901 0.76123703
-1.85551 2.1519001 0.35393599
-1.86967 1.92172 0.60570198
-1.86967 2.0387599 0.622428
-2.17854 2.55847 0.36456701
-1.86967 2.5548501 0.60739601
-1.86967 2.09725 0.72366297
-1.86967 2.48054 0.72906798
-1.92171 1.99375 0.51351702
-1.9095 2.4604199 0.46509501
-2.38956 2.7688899 0.079623602
-2.3698001 2.50562 0.40061
-2.59723 2.8678 0.74448699
-2.6839499 2.5550699 0.71290201
-1.88747 2.5866499 0.59802997
-1.7998 2.06179 0.78110099
-2.5712099 2.7400401 0.74448699
-1.9029 1.93025 0.68012798
-1.9031399 2.47802 0.59802997
-2.30548 2.6176701 0.079623602
-1.9095 2.31885 0.44997501
-2.17854 2.68296 0.73254597
-1.90813 1.96192 0.65768498
-2.3273301 2.6045401 0.60383999
-1.8115799 1.89166 0.35393599
-2.17854 2.5601101 0.30919999
-1.8634599 2.07253 0.76889902
-1.8783 2.0578201 0.73188901
-1.8622299 2.0930901 0.35393599
-1.8636 2.30808 0.35393599
-1.90031 1.91 0.69123298
-2.6512799 2.5239699 0.74448699
-1.86967 2.66822 0.74793202
-1.9095 2.1012001 0.55845302
-1.86967 2.10132 0.614968
-1.86967 2.3545899 0.67450601
-1.92171 1.92601 0.56795502
-2.13553 2.54052 0.71675402
-2.3371301 2.50562 0.730533
-2.13553 2.5192101 0.34804499
-2.3763499 2.6537001 0.079623602
-2.24737 2.5322399 0.710926
-2.5666599 2.6886301 0.60383999
-1.9095 2.82461 0.45070001
-2.33845 2.50562 0.26132199
-1.92171 2.0576999 0.381872
-2.6348 2.8603799 0.74448699
-1.92171 1.9955699 0.48585701
-2.38469 2.50562 0.075446501
-1.91382 2.0343101 0.633277
-2.5499599 2.5550699 0.73276699
-1.90108 1.89885 0.68792403
-2.6087999 2.7379 0.64684898
-1.86967 2.2523601 0.655644
-1.9095 2.76722 0.38882801
-1.86967 2.07195 0.683052
-2.3585401 2.5126901 0.710926
-2.3729 2.50562 0.53720802
-1.74195 2.5512199 0.76889902
-1.9095 2.4591501 0.58027703
-1.9095 2.08811 0.456402
-1.9095 2.5725 0.37016201
-2.17854 2.5316501 0.42493099
-2.17854 2.51243 0.115058
-1.9095 2.5234101 0.49349901
-1.79734 2.6224101 0.76889902
-1.92171 1.96716 0.577254
-2.4837401 2.7929499 0.079623602
-2.17854 2.7869501 0.38539001
-2.4549999 2.5178199 0.42659301
-1.8729 2.05743 0.35393599
-1.9095 2.08933 0.54446501
-1.9095 2.40486 0.36009401
-2.13553 2.53526 0.255638
-1.71452 2.8241401 0.35393599
-1.77432 2.7261701 0.76889902
-2.1961601 2.5163801 0.710926
-2.4426601 2.5178199 0.40493199
-2.4389501 2.4993899 0.26850399
-1.90618 2.7123001 0.35393599
-2.2760601 2.50562 0.111423
-2.2349601 2.58445 0.64684898
-1.86967 2.0293601 0.642591
-2.23634 2.72542 0.74448699
-2.17854 2.6330299 0.29683599
-1.86967 2.0876701 0.69836801
-1.92171 1.9950401 0.56983203
-2.3966701 2.50562 0.56927699
-2.1860099 2.8672199 0.079623602
-1.87634 1.92273 0.74030298
-1.8115799 1.89166 0.35393599
-1.9095 2.51509 0.468492
-2.13553 2.5925601 0.19781899
-1.74433 2.0803001 0.76889902
-2.4397399 2.83956 0.74448699
-2.2944801 2.69437 0.079623602
-2.1693101 2.5396199 0.74448699
-2.26336 2.5526299 0.74448699
-1.77372 2.60864 0.76889902
-1.84948 2.06038 0.78110099
-1.7809401 2.06389 0.35393599
-1.9095 2.6891999 0.40386799
-1.89819 2.39275 0.35393599
-2.2718599 2.74597 0.60383999
-2.6264701 2.86358 0.74448699
-2.3246601 2.50562 0.60827798
-2.4913499 2.8641701 0.079623602
-2.14412 2.5675399 0.64684898
-2.2506001 2.5603001 0.64684898
-1.88592 2.48119 0.35393599
-2.7096701 2.8203399 0.74448699
-1.86967 1.93652 0.730349
-1.9095 2.4382501 0.422723
-2.3095901 2.5843699 0.60383999
-2.17854 2.54477 0.15268099
-2.4549799 2.50562 0.71914202
-2.2177701 2.50562 0.500929
-1.824 2.4146299 0.76889902
-2.45942 2.52529 0.64684898
-1.9095 2.3394699 0.45355299
-2.20963 2.53016 0.74448699
-1.86967 2.76332 0.74081898
-2.64849 2.50562 0.113922
-2.1863101 2.53227 0.710926
-2.6447899 2.50562 0.063717797
-1.9095 2.8164699 0.53351301
-2.32935 2.75811 0.74448699
-2.5953 2.50562 0.28798899
-1.9095 2.5190499 0.44523501
-2.2590301 2.5808699 0.079623602
-2.46208 2.5178199 0.287453
-1.88173 2.1434901 0.59802997
-1.9095 2.151 0.57551497
-2.27388 2.6789801 0.079623602
-2.42575 2.4934101 0.52979898
-1.92171 2.00108 0.43809399
-1.85693 2.71242 0.35393599
-1.9095 2.43274 0.552966
-2.30583 2.76719 0.64684898
-1.80748 1.98686 0.35393599
-2.63868 2.6424999 0.64684898
-1.82593 2.6675999 0.76889902
-1.86669 2.2511799 0.35393599
-2.17854 2.6831 0.105967
-2.1915801 2.50562 0.223162
-1.86967 2.3785701 0.62854803
-1.76379 2.8394401 0.35393599
-2.17854 2.5492101 0.17640001
-1.88958 2.06078 0.73725897
-1.80831 2.7116599 0.76889902
-2.1973901 2.68326 0.079623602
-2.2086 2.6338501 0.64684898
-2.2302101 2.50562 0.34397799
-1.84192 2.4030099 0.76889902
-2.13553 2.6691 0.624686
-2.2957599 2.50562 0.52608699
-1.7589999 2.6266999 0.76889902
-2.24668 2.7284501 0.60383999
-2.39308 2.5745201 0.60383999
-1.86967 2.82792 0.70899701
-1.86967 2.6875 0.66024601
-1.9095 2.4042101 0.418865
-1.9095 2.1680801 0.54514098
-1.86967 2.5784099 0.69843501
-2.3905001 2.7469399 0.079623602
-2.6853299 2.6763599 0.74448699
-2.32814 2.50562 0.276618
-2.3385201 2.50562 0.40657499
-1.8239 2.6580999 0.35393599
-2.13553 2.5617399 0.24715699
-2.17854 2.69186 0.149414
-2.32342 2.50562 0.45078301
-2.36239 2.50562 0.52120298
-2.22948 2.50562 0.423125
-1.88578 2.0531499 0.699826
-1.85347 2.12484 0.76889902
-1.9095 2.5873401 0.46316701
-2.25104 2.50562 0.44890901
-2.6094999 2.50562 0.28765401
-1.75349 1.96082 0.78110099
-1.90657 2.4477401 0.35393599
-2.1907301 2.5550699 0.72663301
-2.4075601 2.53123 0.64684898
-1.7809401 2.06389 0.35393599
-1.74384 2.6765699 0.76889902
-2.38571 2.50562 0.54430401
-2.13553 2.5815201 0.24954
-1.78833 2.8523901 0.35393599
-2.57111 2.7226 0.64684898
-2.17854 2.72984 0.15667
-1.8852201 1.98189 0.70219803
-2.41078 2.50562 0.153074
-2.33815 2.5462799 0.64684898
-1.86967 2.2300799 0.61485201
-1.86272 2.6386499 0.76889902
-2.17854 2.8508 0.0496464
-2.5174201 2.5550699 0.72431099
-1.86967 2.6113501 0.67087901
-1.9043 2.5695701 0.59802997
-1.80348 1.9261301 0.78110099
-2.4198799 2.50562 0.27950001
-2.2471299 2.6265299 0.079623602
-2.17854 2.52981 0.31301901
-1.8914 1.90414 0.72945201
-2.36994 2.83058 0.079623602
-2.27455 2.69822 0.079623602
-2.17854 2.5471301 0.24741
-2.25616 2.5550699 0.733064
-2.13553 2.5135901 0.58009499
-1.9095 2.7346101 0.35677499
-1.79673 2.50653 0.76889902
-1.84847 2.6151099 0.35393599
-1.76314 2.5360899 0.35393599
-1.86967 2.84359 0.65050399
-2.5290301 2.7010601 0.64684898
-2.30707 2.8648701 0.74448699
-1.91336 1.89332 0.63524997
-2.31529 2.5265999 0.60383999
-2.13553 2.7392001 0.180187
-1.86967 2.4507999 0.61200601
-2.2773399 2.7946 0.60383999
-1.8109601 2.56497 0.76889902
-1.73287 2.02352 0.78110099
-1.81532 2.5042701 0.76889902
-2.13866 2.6157 0.64684898
-1.9095 2.8426299 0.38963801
-2.17854 2.6213901 0.101033
-2.17854 2.5229299 0.42264101
-1.86967 2.7536399 0.665824
-2.46422 2.5044301 0.26850399
-2.2929101 2.50562 0.18826699
-1.7144901 2.4962399 0.76889902
-1.86935 2.3761699 0.35393599
-2.17854 2.7490301 0.051834501
-2.13553 2.8605001 0.56362498
-2.67523 2.6727901 0.64684898
-1.86967 1.90465 0.73567498
-2.6951599 2.5359299 0.74448699
-1.76554 2.2194099 0.35393599
-1.78107 2.63256 0.35393599
-1.77147 2.8053501 0.35393599
-2.15078 2.50562 0.201251
-2.17854 2.5174899 0.106635
-1.9095 2.2950301 0.44696701
-1.9095 2.6751101 0.44299999
-2.3914499 2.83709 0.74448699
-1.89358 1.87837 0.666336
-2.2618301 2.50562 0.43675199
-2.13553 2.66781 0.200583
-2.3468499 2.74072 0.079623602
-2.2697201 2.79513 0.74448699
-1.9095 2.80475 0.55038798
-1.87709 2.00822 0.737068
-2.45596 2.5178199 0.51913399
-2.1561201 2.54441 0.710926
-2.6148701 2.5808101 0.74448699
-2.3317499 2.68083 0.60383999
-2.4644699 2.5057299 0.52000701
-2.4256899 2.5178199 0.37360701
-1.92171 2.03756 0.57041198
-2.35166 2.50562 0.101027
-1.87826 2.5333099 0.59802997
-2.66682 2.50562 0.20623399
-2.17854 2.5382199 0.46167001
-2.6408601 2.5444701 0.74448699
-2.17854 2.63276 0.149518
-2.25983 2.7309101 0.64684898
-2.54843 2.7771699 0.74448699
-1.7305501 2.79019 0.35393599
-2.24085 2.50562 0.27836901
-1.9095 2.83482 0.45343399
-1.85077 2.8473001 0.35393599
-1.8447599 2.80708 0.76889902
-2.6021199 2.50562 0.30536199
-2.42608 2.75804 0.079623602
-2.5253 2.50562 0.32865101
-2.3327999 2.50562 0.257103
-1.86967 2.6655099 0.616732
-1.90132 2.0611801 0.68690997
-2.1468201 2.50562 0.20892701
-2.2300301 2.6329501 0.74448699
-2.13553 2.72805 0.060602099
-2.5392499 2.6887 0.74448699
-1.9032201 2.29352 0.35393599
-2.17854 2.7435901 0.333125
-2.34705 2.68118 0.60383999
-2.17854 2.55878 0.211311
-2.17854 2.69186 0.149414
-1.84367 2.6890099 0.35393599
-2.5611 2.80369 0.079623602
-2.5462699 2.50648 0.74448699
-2.6681399 2.6073301 0.079623602
-2.57585 2.6244199 0.74448699
-2.2600601 2.50562 0.354314
-2.2112801 2.6401401 0.74448699
-2.54777 2.5178199 0.241706
-2.59624 2.57353 0.74448699
-2.23334 2.5912001 0.079623602
-1.89062 1.95513 0.679052
-2.63535 2.53073 0.079623602
-1.9095 2.07236 0.443582
-2.13553 2.8582699 0.39074799
-2.5604 2.52391 0.74448699
-1.92171 1.9177901 0.53154802
-1.9095 2.7861199 0.37004599
-1.75956 2.69719 0.35393599
-1.7503099 1.89351 0.35393599
-1.9095 2.7224801 0.51419801
-1.9095 2.40536 0.56891
-2.56373 2.6760199 0.74448699
-1.7746201 2.55619 0.35393599
-1.86849 2.0942099 0.76889902
-1.77674 2.4596601 0.76889902
-1.86967 2.08919 0.61600697
-1.7851 2.24441 0.35393599
-1.86967 2.3800099 0.60016602
-2.6922801 2.5242801 0.74448699
-2.5107999 2.51368 0.710926
-1.89846 1.98541 0.64542502
-1.76177 2.5652001 0.35393599
-2.49104 2.5178199 0.249677
-1.9095 2.3299 0.52909797
-1.86396 2.6607299 0.35393599
-2.3464 2.50562 0.30492899
-2.67997 2.6163499 0.64684898
-1.74885 2.5106499 0.35393599
-1.86967 2.7477901 0.76597899
-2.3411901 2.50562 0.32346001
-1.90452 2.2177 0.35393599
-2.29407 2.6140399 0.64684898
-1.9095 2.3785701 0.56689203
-1.80348 1.9261301 0.78110099
-2.3213 2.60884 0.079623602
-2.4877701 2.50562 0.31468201
-2.17854 2.8192599 0.419615
-2.17854 2.67471 0.224626
-2.2544799 2.50562 0.371185
-2.13553 2.5067999 0.74439299
-2.34461 2.8222799 0.74448699
-2.17854 2.5485201 0.40046901
-2.17854 2.5827 0.164813
-2.19345 2.50562 0.111447
-1.86967 2.5810499 0.62721401
-1.8639899 2.6612401 0.35393599
-1.7142299 2.4828501 0.35393599
-1.86613 2.73033 0.76889902
-2.13553 2.8369901 0.498229
-2.5107999 2.51368 0.710926
-2.63989 2.50562 0.10104
-1.8560801 2.23053 0.35393599
-1.86967 2.03792 0.71822298
-2.20174 2.7042401 0.74448699
-1.83583 2.5307 0.35393599
-2.3290999 2.50562 0.195788
-1.86967 2.2743101 0.62023199
-2.6584699 2.50562 0.31294799
-2.2175 2.50562 0.48195899
-2.13553 2.78334 0.113967
-2.2020199 2.72089 0.64684898
-2.13553 2.8268199 0.073067702
-2.49476 2.5372 0.710926
-1.8785 1.93383 0.73102599
-1.92171 1.99549 0.471095
-1.77889 1.91991 0.35393599
-1.9095 2.36871 0.52923399
-2.6163099 2.7927499 0.74448699
-1.8493201 2.8658199 0.35393599
-2.5474401 2.6385701 0.74448699
-2.17992 2.50562 0.255555
-1.8473901 2.8029399 0.76889902
-1.80432 2.63379 0.76889902
-1.8096499 2.8139801 0.76889902
-1.9095 2.1394401 0.58942002
-2.25932 2.5974901 0.60383999
-2.1904399 2.5465901 0.079623602
-2.17854 2.6967199 0.086598702
-2.2431901 2.50562 0.089894198
-2.17854 2.71172 0.149012
-1.84978 2.64115 0.76889902
-2.13553 2.7067599 0.277863
-2.69789 2.63308 0.64684898
-2.56142 2.50562 0.193354
-2.13553 2.5197401 0.617585
-1.76407 2.2476101 0.35393599
-2.3071599 2.7298 0.74448699
-2.2399399 2.75438 0.64684898
-2.15203 2.6556101 0.710926
-2.26091 2.7757599 0.74448699
-2.6182599 2.50562 0.25573701
-2.13553 2.79547 0.57527798
-1.87523 1.99228 0.77019298
-1.8264 2.6000299 0.35393599
-2.17854 2.51478 0.70554399
-1.86967 2.4791901 0.72461802
-1.9095 2.12465 0.43487999
-2.27033 2.6677799 0.079623602
-1.73548 1.94029 0.35393599
-1.91935 2.04638 0.60957098
-1.74989 1.89697 0.78110099
-1.90713 1.99354 0.66197503
-1.85827 2.6100299 0.76889902
-2.5407701 2.68819 0.60383999
-2.17854 2.6257601 0.27271301
-2.3464799 2.50562 0.24441899
-2.4899199 2.6535299 0.60383999
-2.64975 2.8116701 0.74448699
-2.13553 2.61303 0.57446003
-2.17854 2.7885301 0.57490802
-2.17854 2.5511401 0.1222
-2.39411 2.7967501 0.74448699
-2.46208 2.5178199 0.287453
-2.5641401 2.5550699 0.725573
-2.4828701 2.50562 0.30824399
-2.17854 2.7009001 0.17551599
-1.88214 2.8336101 0.59802997
-1.9095 2.3306999 0.52100497
-1.92171 2.03756 0.57041198
-1.87507 2.0606599 0.77681798
-1.81014 2.79006 0.35393599
-1.728 2.45119 0.76889902
-2.1848099 2.6979301 0.60383999
-2.6612799 2.78984 0.74448699
-2.5007701 2.50562 0.468586
-1.7294199 2.05861 0.78110099
-1.85233 2.46122 0.35393599
-2.17854 2.5543599 0.28201601
-2.17854 2.8138499 0.56998003
-2.2637601 2.6884 0.60383999
-2.4949701 2.52718 0.710926
-2.13553 2.5392001 0.39302
-1.9095 2.1962299 0.582169
-1.86967 2.54356 0.69244802
-2.5824299 2.8085301 0.74448699
-1.8023 2.0195899 0.78110099
-2.5413201 2.50562 0.19690201
-1.9095 2.07236 0.443582
-2.13553 2.6371701 0.250682
-2.5353899 2.76951 0.60383999
-2.21784 2.7326701 0.60383999
-2.17854 2.5336699 0.48402199
-2.2931499 2.7311399 0.60383999
-2.2206099 2.77334 0.079623602
-2.3914499 2.83709 0.74448699
-1.9095 2.1208999 0.473432
-2.6419599 2.50562 0.285216
-2.4670401 2.50562 0.189981
-2.4756 2.8120601 0.74448699
-2.3179801 2.60357 0.079623602
-2.44349 2.6008699 0.60383999
-2.17854 2.8194301 0.42701301
-1.9095 2.37041 0.37275201
-2.2742701 2.60025 0.64684898
-1.8302 2.0678799 0.35393599
-2.6561601 2.70437 0.60383999
-2.2727301 2.83953 0.64684898
-2.13553 2.61147 0.15711901
-1.9095 2.6891999 0.40386799
-2.13553 2.6392901 0.172364
-2.21837 2.50562 0.58370602
-2.13553 2.5524499 0.629466
-1.9095 2.21101 0.504224
-1.85132 2.6875899 0.76889902
-2.5695701 2.8517699 0.74448699
-2.4016399 2.50562 0.0589086
-2.13553 2.56867 0.0572205
-2.13553 2.56756 0.21157999
-1.88697 1.99683 0.69468403
-2.13553 2.7244 0.12739199
-2.13553 2.68168 0.60079801
-2.3211801 2.8520501 0.079623602
-2.13553 2.5145199 0.49448401
-2.33726 2.8652699 0.74448699
-1.87709 2.00822 0.737068
-2.18696 2.52947 0.64684898
-2.63483 2.8114901 0.74448699
-1.84513 2.5836899 0.76889902
-2.5211201 2.8499701 0.079623602
-2.1907301 2.5550699 0.72663301
-2.2401099 2.7427599 0.60383999
-1.7600501 2.8226399 0.76889902
-2.13553 2.53933 0.54798502
-2.18976 2.5881801 0.60383999
-2.2431901 2.50562 0.089894198
-1.9052 1.87273 0.61651498
-1.86967 1.88826 0.65547502
-1.9095 2.22895 0.44255799
-1.78441 1.94318 0.78110099
-1.86967 2.0555601 0.756504
-1.88712 1.8924 0.59802997
-2.13553 2.6467099 0.31880799
-1.9095 2.6557901 0.49877301
-1.86508 2.8303199 0.76889902
-2.6568 2.7685001 0.60383999
-2.3122301 2.50562 0.29585901
-2.5107701 2.7767799 0.74448699
-1.9095 2.40939 0.44589201
-2.5315299 2.4985199 0.25629899
-1.86967 2.3752501 0.75157303
-1.72193 2.7011299 0.76889902
-1.76289 2.7195599 0.76889902
-2.6400001 2.50562 0.12232
-2.1931901 2.60129 0.74448699
-1.78548 2.55896 0.35393599
-1.82707 2.8398099 0.35393599
-2.13553 2.7560599 0.122406
-2.13553 2.5090301 0.41031599
-1.9095 2.1075001 0.474013
-2.14697 2.70438 0.64684898
-2.31968 2.50562 0.50376898
-1.87861 2.1273601 0.59802997
-2.17854 2.5966899 0.15034001
-2.17014 2.50562 0.146706
-2.13553 2.5485499 0.35541999
-1.9095 2.2223001 0.370134
-1.76747 2.8183801 0.76889902
-2.44081 2.50562 0.191488
-2.13553 2.5385699 0.158281
-2.59027 2.7379999 0.60383999
-2.17854 2.5863099 0.29074299
-1.86967 2.07195 0.683052
-2.13553 2.5715499 0.41510499
-1.91151 1.94295 0.59802997
-1.86967 2.1038899 0.60725898
-1.88797 2.0868499 0.35393599
-2.6186199 2.5208099 0.079623602
-1.90813 1.96192 0.65768498
-1.9095 2.6540501 0.57482803
-1.75116 1.92357 0.78110099
-1.81749 2.3925099 0.35393599
-2.2277 2.52244 0.079623602
-1.9095 2.151 0.57551497
-1.7386 2.4820199 0.35393599
-1.9095 2.1421299 0.45660701
-1.9129601 2.06739 0.54409498
-2.17854 2.5550001 0.212139
-1.86967 1.94216 0.66303498
-1.9095 2.4886401 0.52309197
-1.73208 1.98762 0.35393599
-2.17854 2.52141 0.35782501
-1.86967 2.47715 0.73907799
-2.17854 2.6510601 0.30105999
-1.86967 1.87946 0.664711
-1.9095 2.70489 0.53866899
-2.2395501 2.52841 0.710926
-2.2481 2.50562 0.408122
-2.63322 2.5604801 0.74448699
-2.4981699 2.7881601 0.079623602
-2.21454 2.50562 0.20372
-1.86967 2.2145801 0.65024698
-2.13553 2.59289 0.234699
-2.6365099 2.6868601 0.64684898
-2.13553 2.5560999 0.18907499
-1.9095 2.0815699 0.55906099
-2.3878 2.6598201 0.60383999
-2.64469 2.50562 0.0868439
-1.9095 2.7871799 0.51883501
-2.17854 2.7732899 0.087293804
-2.2587099 2.7153201 0.079623602
-2.45702 2.7975299 0.079623602
-2.1594999 2.6942799 0.64684898
-2.5030301 2.7748201 0.079623602
-2.402 2.58828 0.60383999
-2.13553 2.5934 0.72237599
-2.14009 2.50562 0.47969499
-1.86967 2.1870699 0.714921
-2.3059101 2.50562 0.0794736
-2.44645 2.5636301 0.60383999
-1.74247 2.0189199 0.35393599
-2.1910999 2.7732 0.079623602
-1.9095 2.67397 0.408741
-1.7531199 1.8824 0.35393599
-2.66187 2.7683699 0.64684898
-1.9095 2.70489 0.53866899
-2.13553 2.8115001 0.078262202
-1.86967 2.0021901 0.66226298
-1.84855 2.1282499 0.35393599
-2.3799 2.50562 0.055986099
-1.8489 2.6649301 0.35393599
-2.48628 2.5178199 0.297241
-2.2897999 2.50562 0.60371
-1.86967 2.7305 0.68694597
-1.8960201 2.3188801 0.35393599
-1.87529 1.9112999 0.59802997
-1.83998 2.6076901 0.76889902
-2.13553 2.64433 0.082663901
-1.85613 2.31498 0.35393599
-1.8378 1.8863699 0.78110099
-2.4435101 2.5704 0.60383999
-2.13553 2.55531 0.52583402
-1.8439699 2.5269899 0.35393599
-2.3694799 2.50562 0.095363997
-2.1931901 2.60129 0.74448699
-1.85972 2.7381101 0.76889902
-2.17854 2.7999899 0.148249
-2.6189699 2.74367 0.64684898
-2.17854 2.54233 0.43165901
-1.86967 2.4829099 0.719087
-2.70608 2.5293 0.710926
-2.3326001 2.5252399 0.60383999
-2.17854 2.52437 0.121544
-1.9095 2.2695701 0.53056401
-1.86967 1.98235 0.61166698
-1.9095 2.5160699 0.52829701
-1.86967 2.6811199 0.76817799
-1.7521501 2.0491199 0.35393599
-2.2100899 2.58849 0.60383999
-2.42612 2.5178199 0.088821299
-2.2632301 2.7413001 0.64684898
-2.1811399 2.5550699 0.74306202
-1.90247 2.8362401 0.35393599
-2.17854 2.8062699 0.106884
-1.86967 2.1804099 0.627285
-2.2548001 2.7651 0.64684898
-1.9095 2.3756499 0.55598599
-1.90564 1.90011 0.66836298
-1.80964 2.4846599 0.35393599
-2.26492 2.50562 0.070255302
-1.91977 2.06739 0.50713003
-2.7053699 2.5056801 0.74448699
-2.2588501 2.6400101 0.64684898
-1.79656 2.7169299 0.76889902
-1.9095 2.34512 0.50518203
-2.4208901 2.5075901 0.275401
-2.3248601 2.50562 0.52258903
-1.7600501 2.8226399 0.76889902
-2.22347 2.6853399 0.079623602
-1.8920701 1.99122 0.67284
-1.86967 2.5787301 0.641514
-2.5231099 2.5178199 0.35293201
-2.13553 2.6012499 0.119276
-2.1876099 2.6452501 0.64684898
-1.9095 2.8282599 0.49154201
-1.86456 2.0722301 0.76889902
-2.1503501 2.50562 0.38550001
-2.13553 2.6311901 0.31629401
-1.75948 2.1526799 0.35393599
-1.9095 2.2411301 0.57426399
-2.2346499 2.55528 0.079623602
-2.13553 2.77969 0.128484
-1.80891 2.06849 0.76889902
-2.17854 2.5903101 0.30057099
-2.5231099 2.5178199 0.35293201
-1.9073 2.07302 0.35393599
-1.9095 2.7516999 0.53556198
-1.9095 2.7529399 0.56967199
-1.90496 2.8517699 0.59802997
-2.13553 2.57021 0.226602
-1.78861 1.88026 0.35393599
-2.17854 2.5193501 0.25803801
-2.13553 2.8035901 0.059115998
-2.17854 2.5778699 0.16511799
-1.86967 1.98235 0.61166698
-1.87053 2.1829801 0.35393599
-2.20803 2.50562 0.71198797
-2.2431901 2.50562 0.089894198
-2.13729 2.50562 0.63952702
-1.87763 2.0973401 0.35393599
-1.86182 2.8215499 0.35393599
-2.13553 2.5304999 0.50860697
-2.2949901 2.5290301 0.079623602
-1.77425 2.52823 0.35393599
-1.8828 2.35098 0.59802997
-2.66501 2.78104 0.74448699
-1.71798 2.7291901 0.35393599
-2.30317 2.68695 0.079623602
-2.51893 2.6710801 0.64684898
-2.3199201 2.62885 0.60383999
-2.6362 2.5764999 0.74448699
-2.24052 2.5138099 0.60383999
-2.18347 2.6121299 0.74448699
-2.20772 2.56442 0.64684898
-2.36215 2.7978699 0.74448699
-1.9095 2.6152 0.48588899
-2.17854 2.5613401 0.15990999
-2.56373 2.6760199 0.74448699
-1.75769 1.93444 0.35393599
-1.78772 2.52689 0.76889902
-1.9095 2.3047199 0.42960799
-1.9095 2.70368 0.44737101
-2.2072301 2.55832 0.079623602
-2.38767 2.71333 0.079623602
-1.8514 2.6433001 0.76889902
-1.9023 2.6747899 0.59802997
-2.17854 2.5471301 0.24741
-1.86967 2.8459699 0.66634101
-2.39942 2.50562 0.405094
-2.24915 2.56148 0.079623602
-2.3494999 2.50562 0.219244
-2.46261 2.5178199 0.34608001
-2.32985 2.50562 0.591555
-2.51827 2.6551001 0.64684898
-2.17854 2.82656 0.56467497
-1.9095 2.3212399 0.43804201
-1.79361 2.70734 0.76889902
-2.13553 2.54563 0.53159201
-2.2683301 2.7843599 0.60383999
-1.91468 2.00353 0.62960303
-2.17854 2.6951301 0.087699004
-2.13553 2.5197001 0.237957
-2.2758501 2.73265 0.60383999
-2.4044499 2.50562 0.35958701
-2.2681301 2.6872101 0.74448699
-1.73191 2.5723 0.76889902
-2.17854 2.5336699 0.597938
-1.9095 2.2321 0.385472
-2.2770801 2.63851 0.60383999
-2.2109699 2.50562 0.084876701
-1.85132 2.6875899 0.76889902
-2.66324 2.7253799 0.74448699
-1.9095 2.8068399 0.55304402
-2.13553 2.63116 0.17759401
-1.9095 2.1208999 0.473432
-1.74509 2.47492 0.76889902
-2.18418 2.65518 0.74448699
-2.14043 2.50562 0.20827501
-1.9095 2.43066 0.572321
-2.3645599 2.58987 0.60383999
-2.65149 2.7688999 0.74448699
-1.77652 2.85044 0.35393599
-1.81206 1.97479 0.78110099
-2.3255401 2.5230501 0.079623602
-2.6168001 2.50562 0.25248
-2.21597 2.69907 0.079623602
-1.86421 2.06739 0.779809
-1.87968 2.0331099 0.77122802
-1.92171 1.91681 0.53234702
-2.59583 2.50562 0.100467
-2.4439001 2.5058401 0.56722599
-1.81532 2.5042701 0.76889902
-1.9095 2.8164699 0.53351301
-1.92171 1.94986 0.55588698
-2.2465401 2.6776299 0.64684898
-2.41396 2.7426701 0.079623602
-1.9095 2.7486899 0.43946299
-1.9095 2.53385 0.50391102
-2.42854 2.5178199 0.56138998
-2.5273199 2.50562 0.32292601
-1.9095 2.8139999 0.46862599
-2.3187599 2.50562 0.474599
-2.13553 2.8369901 0.498229
-1.745 2.76372 0.35393599
-2.27069 2.50562 0.42596701
-1.86967 1.93848 0.691993
-2.32763 2.76174 0.079623602
-1.86967 2.6963699 0.66578799
-2.6975701 2.59096 0.60383999
-2.4439001 2.5058401 0.56722599
-2.35794 2.50562 0.451967
-1.87936 2.02424 0.72736901
-1.9095 2.74351 0.474484
-1.9095 2.5629001 0.41041601
-2.17854 2.6224699 0.21141499
-2.5745299 2.6835899 0.64684898
-2.17854 2.6115301 0.37679201
-1.86967 1.9354399 0.73911101
-2.3438301 2.5112801 0.74448699
-2.2168901 2.50562 0.463671
-1.9095 2.2000101 0.49002099
-2.6953001 2.50562 0.29188001
-2.1552 2.50562 0.176356
-2.66628 2.5550699 0.71203297
-1.82209 1.9192899 0.78110099
-2.4290099 2.7634301 0.079623602
-1.86967 2.42048 0.742275
-1.88794 2.1523199 0.35393599
-2.13553 2.6654401 0.14959399
-1.84531 2.57707 0.35393599
-2.37707 2.50562 0.312273
-2.25264 2.51985 0.60383999
-1.72296 1.93367 0.35393599
-1.86967 2.1710999 0.71858001
-2.61099 2.76914 0.74448699
-2.28811 2.50562 0.418605
-2.20193 2.50562 0.389366
-1.7325799 2.5461299 0.35393599
-2.55408 2.60392 0.74448699
-2.4564099 2.79844 0.079623602
-1.79796 1.93433 0.35393599
-1.86967 1.93592 0.62734699
-2.2595501 2.50562 0.36450499
-1.9095 2.2853401 0.56819701
-1.89209 2.7703199 0.59802997
-1.85005 2.60322 0.76889902
-1.9095 2.56651 0.43803
-2.2089601 2.58218 0.74448699
-2.13553 2.5934 0.72237599
-2.17854 2.7228601 0.188612
-1.71384 1.93267 0.35393599
-1.9095 2.35813 0.54242599
-2.13553 2.67381 0.10008
-2.54 2.8577299 0.74448699
-2.6433599 2.50562 0.244468
-2.45206 2.5134499 0.17406499
-2.66501 2.78104 0.74448699
-1.74514 2.0715101 0.35393599
-1.86967 2.6788099 0.758995
-1.90881 2.85834 0.59802997
-2.2239599 2.6396301 0.64684898
-1.9095 2.2191999 0.44699401
-2.13553 2.58831 0.353414
-1.78391 1.87227 0.78110099
-1.9095 2.3756199 0.38021699
-2.70701 2.7395 0.64684898
-1.9101 1.88967 0.59802997
-1.89086 2.3115799 0.59802997
-1.92171 2.0088201 0.46246099
-1.92171 1.93445 0.54843998
-2.4501801 2.5178199 0.22456101
-2.2657199 2.8431599 0.64684898
-1.87632 2.0634601 0.35393599
-1.9095 2.20013 0.41785499
-1.92015 2.06739 0.388928
-2.67804 2.76123 0.74448699
-2.5889699 2.8086901 0.079623602
-2.51439 2.50562 0.73355597
-1.91184 2.06739 0.50200301
-1.7387201 2.78597 0.35393599
-2.2007 2.5122499 0.64684898
-1.88668 2.27191 0.35393599
-1.86967 2.0555601 0.756504
-2.5055699 2.50562 0.71845597
-1.92171 1.97079 0.44735199
-2.6810601 2.50562 0.14947499
-1.9095 2.5364101 0.51196802
-2.4372799 2.8421199 0.74448699
-1.86967 2.8459699 0.66634101
-2.47205 2.5114701 0.39955899
-1.9095 2.0751801 0.472166
-1.89133 1.99984 0.59802997
-2.3867199 2.50562 0.48034
-1.76985 2.0504 0.78110099
-1.85589 2.0160699 0.78110099
-1.73904 2.51596 0.35393599
-2.57477 2.50562 0.205199
-2.35794 2.50562 0.451967
-2.13553 2.71612 0.226081
-1.9095 2.17823 0.39961001
-2.13553 2.5939801 0.18853
-2.4300699 2.50562 0.067874201
-2.2567401 2.6918199 0.74448699
-1.92171 2.03756 0.57041198
-2.3920901 2.50562 0.106334
-1.82323 2.7334499 0.35393599
-1.87919 2.06512 0.35393599
-2.6348 2.8603799 0.74448699
-1.92171 1.95544 0.57216603
-2.17854 2.56371 0.189124
-2.6408601 2.5444701 0.74448699
-2.5392499 2.6887 0.74448699
-2.13553 2.54826 0.71587598
-2.61883 2.8410399 0.079623602
-2.13553 2.7170701 0.31489399
-1.7809401 2.06389 0.35393599
-1.86967 2.1802599 0.73286998
-1.7967499 2.16993 0.35393599
-2.1798301 2.50562 0.44196701
-2.3742001 2.6901 0.079623602
-2.13553 2.5547199 0.474619
-2.13553 2.55582 0.74201798
-1.914 2.0339601 0.63250703
-2.5141001 2.50562 0.33586299
-1.9095 2.4576299 0.399396
-2.4242401 2.5178199 0.218006
-2.17047 2.6415701 0.710926
-1.86967 2.61342 0.729608
-2.3955801 2.6623399 0.60383999
-1.9095 2.3737299 0.531551
-1.92107 2.01544 0.60217202
-2.6015301 2.51162 0.74448699
-1.87296 2.6909599 0.35393599
-2.6100099 2.8473599 0.74448699
-2.13553 2.59673 0.097274497
-1.80128 2.56652 0.76889902
-1.86459 2.13399 0.76889902
-2.6470101 2.50562 0.22597501
-2.49172 2.5178199 0.239728
-2.17854 2.8508 0.0496464
-2.61673 2.5453601 0.74448699
-1.86967 2.52089 0.66120303
-2.2189 2.50562 0.41938999
-2.1922901 2.6677001 0.079623602
-2.13553 2.59165 0.37992901
-2.4962399 2.50562 0.73052597
-2.2865601 2.50562 0.468959
-2.6270299 2.6481299 0.64684898
-1.90839 2.83463 0.35393599
-2.17854 2.67135 0.318661
-2.13553 2.7811799 0.135772
-2.17854 2.5646801 0.51561803
-1.7851599 2.66644 0.76889902
-1.86967 2.02354 0.73505503
-2.6268799 2.7226501 0.64684898
-1.92171 1.9405299 0.48414999
-2.4566901 2.51369 0.26850399
-2.6057 2.83953 0.74448699
-2.36443 2.6917701 0.60383999
-2.17854 2.67349 0.275226
-2.13553 2.73229 0.085824497
-2.4228599 2.85502 0.74448699
-2.42662 2.50562 0.19298901
-2.5940101 2.86693 0.079623602
-2.2497799 2.7425301 0.64684898
-2.37643 2.53743 0.079623602
-2.26123 2.86603 0.64684898
-2.56582 2.74931 0.74448699
-2.17854 2.5299101 0.66137099
-1.9095 2.6239901 0.59628999
-1.8429 2.82059 0.35393599
-2.36443 2.6917701 0.60383999
-2.13553 2.7055299 0.112558
-2.2056999 2.58167 0.74448699
-2.5637701 2.5817699 0.74448699
-1.86967 1.96522 0.74640697
-2.13553 2.7309 0.137003
-2.17854 2.84601 0.54025
-2.2600999 2.6569901 0.60383999
-2.6937499 2.79302 0.74448699
-1.86967 2.5221801 0.61126798
-2.4893701 2.8271999 0.74448699
-1.8177 2.74844 0.35393599
-2.2548001 2.7651 0.64684898
-1.9095 2.3115799 0.499749
-2.3475699 2.50562 0.30594999
-2.13553 2.5206699 0.448475
-2.2681999 2.50562 0.56943297
-2.3891599 2.50562 0.54873598
-2.5107999 2.51368 0.710926
-1.9095 2.2156899 0.58378601
-2.42647 2.50562 0.076274
-2.57393 2.72789 0.64684898
-2.6724801 2.6274199 0.64684898
-2.2697999 2.76494 0.079623602
-2.13553 2.84407 0.119893
-2.29407 2.6140399 0.64684898
-2.3910201 2.76614 0.079623602
-1.82687 2.7172799 0.35393599
-1.87519 2.41278 0.35393599
-2.1528599 2.50562 0.131382
-2.3449399 2.64292 0.60383999
-1.86967 2.4730899 0.62745601
-2.13553 2.7734499 0.085607097
-2.6475 2.50562 0.076734401
-1.76061 2.51244 0.35393599
-2.13553 2.54284 0.476414
-2.3176301 2.50562 0.20082
-1.77834 2.5132401 0.35393599
-1.75125 2.13028 0.35393599
-1.77508 2.5241201 0.76889902
-2.69888 2.6099701 0.60383999
-1.86967 2.6575799 0.73255098
-2.5149801 2.7290699 0.60383999
-2.13553 2.61147 0.15711901
-1.9095 2.4217401 0.52632201
-1.86967 2.5310299 0.75631398
-1.9095 2.48192 0.49915901
-1.8690799 2.5262799 0.35393599
-1.86967 2.80634 0.73403001
-2.2497799 2.7425301 0.64684898
-1.90671 2.02964 0.609999
-2.13553 2.5174 0.55454397
