# .PCD v0.7 - Point Cloud Data file format
VERSION 0.7
FIELDS x y z
SIZE 4 4 4
TYPE F F F
COUNT 1 1 1
WIDTH 1635
HEIGHT 1
VIEWPOINT 0 0 0 1 0 0 0
POINTS 1635
DATA ascii
4.13551 -2.0536799 3.0999999
4.1757302 -1.80099 3.0999999
4.1556602 -1.9814399 3.06218
4.2876201 -1.7096 3.0999999
4.24087 -1.95205 3.0999999
4.1907701 -1.9633 3.0999999
4.0622602 -1.44735 3.06218
4.2325301 -1.93764 3.0999999
4.1247802 -1.49849 3.0999999
4.2827601 -1.80362 3.06218
4.0180001 -1.54171 3.06218
4.1073298 -1.6576999 3.06218
4.0131402 -1.54976 3.0999999
4.1778002 -1.58064 3.0999999
4.0081701 -1.93455 3.06218
4.0878701 -1.3538001 3.06218
4.1615701 -1.70603 3.06218
4.01018 -1.29662 3.0999999
4.0643802 -1.24476 3.0999999
4.1084599 -1.4857301 3.06218
4.2592702 -1.93125 3.0999999
4.1468501 -1.63864 3.0999999
4.1403098 -1.2180099 3.06218
4.0359602 -1.96269 3.06218
4.2848501 -1.80398 3.06218
4.1380301 -1.41808 3.06218
4.1870599 -1.56907 3.06218
4.0423002 -1.51429 3.0999999
4.0710602 -1.33654 3.06218
4.2494702 -1.2286299 3.0999999
4.1785202 -1.8821501 3.06218
3.9925599 -1.57048 3.06218
4.1610999 -1.71279 3.0999999
4.11797 -1.18176 3.0999999
4.0676899 -1.3009 3.06218
4.2097502 -1.83516 3.06218
4.2647099 -1.86817 3.06218
3.9946599 -1.9945199 3.0999999
4.12604 -1.52702 3.0999999
4.2564001 -1.97219 3.0999999
4.0303602 -1.51069 3.06218
4.2425699 -2.0007701 3.06218
3.9665401 -1.55276 3.0736201
4.1733999 -1.96719 3.06218
4.2511702 -1.65652 3.0999999
4.10428 -1.6378 3.06218
4.2405901 -1.77387 3.0999999
4.06426 -1.38605 3.0999999
4.2519999 -1.17047 3.0999999
4.2807002 -1.89091 3.0999999
4.0237999 -1.26869 3.0999999
4.1269498 -2.10093 3.06218
4.1305299 -1.67602 3.0999999
4.02917 -1.46691 3.0999999
4.1654301 -2.11008 3.06218
3.96773 -1.44355 3.0999999
4.2147899 -1.15914 3.06218
4.0634899 -1.3661 3.06218
4.0554299 -1.2373 3.0999999
4.2755699 -1.67252 3.06218
4.2274299 -1.78679 3.06218
4.1609502 -1.99727 3.06218
4.1938 -2.06445 3.0999999
4.2647099 -1.86817 3.06218
4.2431302 -1.6101201 3.0999999
4.2088399 -1.7240601 3.06218
4.1128898 -1.9775701 3.0999999
4.0257101 -1.24234 3.0999999
4.1517801 -1.84182 3.0999999
4.0083699 -1.56127 3.06218
4.0710802 -1.32442 3.06218
4.2678299 -2.05863 3.0999999
3.9665401 -1.14099 3.0877299
3.9665401 -1.49841 3.0643401
4.0302601 -1.49178 3.06218
3.9665401 -1.43949 3.0828199
4.08849 -1.38157 3.0999999
4.0885401 -1.31945 3.06218
4.06534 -1.40416 3.06218
4.20365 -1.93504 3.0999999
4.1514001 -1.27609 3.0999999
4.0382099 -1.52193 3.0999999
4.1250801 -1.93405 3.06218
4.2651601 -1.19304 3.06218
4.1071801 -1.5934 3.06218
4.1634202 -1.84012 3.06218
4.0474801 -1.17343 3.0999999
4.1770401 -1.76024 3.06218
4.1560102 -2.0167601 3.06218
3.97175 -1.95559 3.0999999
4.1463599 -2.1193099 3.0999999
4.0654702 -2.0141499 3.0999999
4.04877 -1.56365 3.06218
4.0096798 -1.21902 3.06218
4.0432601 -1.1678801 3.0999999
4.0736699 -1.44753 3.06218
4.04913 -1.30468 3.0999999
4.1077099 -1.16951 3.0999999
3.9742401 -1.45561 3.0999999
3.9981 -1.94032 3.0999999
4.2860498 -1.59352 3.06218
4.1388698 -1.438 3.0999999
4.0083699 -1.56127 3.06218
4.1055002 -1.42415 3.06218
4.2516198 -1.87881 3.0999999
4.2761898 -1.54721 3.0999999
4.2463398 -1.77525 3.06218
4.1382899 -1.2712801 3.06218
4.1905298 -1.66418 3.0999999
4.19489 -1.6829799 3.06218
4.2804499 -1.77955 3.06218
4.0696402 -1.32823 3.0999999
4.2505698 -2.07531 3.0999999
4.2077198 -1.20525 3.0999999
4.0811701 -1.59789 3.06218
4.2128 -1.96624 3.0999999
4.0499902 -1.44437 3.0999999
4.0587602 -1.93718 3.0999999
4.0308599 -1.55093 3.0999999
4.0977101 -1.95961 3.0999999
3.9668 -1.93799 3.06218
4.2569699 -1.13966 3.06218
4.1269798 -1.86201 3.0999999
4.2814898 -2.05652 3.0999999
3.9665401 -1.34278 3.0756099
4.2754698 -1.15896 3.06218
4.2077498 -1.51512 3.06218
3.96731 -1.43538 3.0999999
4.2086 -1.28456 3.06218
4.1332798 -1.87409 3.0999999
4.1535902 -1.81577 3.06218
3.9665401 -1.49763 3.0996399
3.9665401 -1.27481 3.08934
4.06426 -1.38605 3.0999999
4.1722498 -1.6269 3.0999999
4.0053902 -1.37042 3.0999999
4.2298498 -1.18076 3.0999999
3.9665401 -1.47402 3.09338
4.02285 -1.48265 3.06218
4.1839199 -1.91081 3.0999999
4.0209098 -1.94565 3.0999999
4.2010899 -2.12954 3.06218
4.0149498 -1.36958 3.06218
4.2220101 -1.78003 3.06218
4.0427198 -1.54109 3.0999999
4.1531601 -1.81058 3.0999999
4.0091701 -1.58226 3.0999999
4.23069 -1.73743 3.06218
4.02633 -1.94867 3.06218
4.0844598 -1.5799 3.0999999
3.98329 -1.55629 3.0999999
4.1431098 -1.36613 3.06218
4.0242801 -1.38908 3.06218
4.1584201 -1.13728 3.0999999
4.0537901 -1.29176 3.06218
4.1455202 -1.59419 3.0999999
4.14675 -1.47422 3.0999999
4.1221099 -1.5879 3.0999999
4.2077198 -1.20525 3.0999999
4.2049499 -1.70485 3.06218
4.0780401 -1.4190201 3.06218
4.2596598 -1.94995 3.0999999
3.9665401 -1.95208 3.0819099
4.15768 -1.80945 3.06218
4.1056199 -1.50877 3.06218
4.0422502 -1.27749 3.0999999
4.24894 -2.0524299 3.0999999
4.1957302 -1.9536 3.06218
4.0868502 -1.15712 3.06218
4.1023202 -1.5247 3.06218
4.1879101 -1.92827 3.0999999
4.06534 -1.1792901 3.06218
4.0291901 -1.3512501 3.0999999
4.16961 -1.60939 3.0999999
4.0048199 -1.3517801 3.06218
4.2709899 -1.2565399 3.06218
3.9860301 -1.21798 3.06218
4.2389202 -1.7405601 3.06218
3.9665401 -1.42759 3.0858099
4.2097502 -1.83516 3.06218
3.97386 -1.42083 3.06218
4.1757302 -1.80099 3.0999999
4.1106601 -1.93214 3.0999999
4.1775498 -1.57359 3.0999999
4.0155201 -1.45945 3.06218
4.0370498 -1.3389601 3.0999999
4.1709499 -1.27609 3.06218
4.03442 -1.58219 3.06218
4.1687799 -1.53407 3.06218
4.1879702 -1.50914 3.06218
3.9665401 -1.41486 3.07391
4.0517902 -1.21816 3.0999999
4.17068 -1.97916 3.06218
4.0995698 -1.23938 3.06218
4.2232599 -2.11463 3.06218
4.1940598 -1.2829 3.0999999
4.1149001 -1.41952 3.06218
4.1825199 -1.9473799 3.06218
4.0724602 -1.22524 3.06218
4.1049099 -1.51802 3.06218
4.0488601 -1.96872 3.0999999
4.0852799 -1.34954 3.06218
4.1957302 -1.9536 3.06218
4.1333098 -2.00438 3.0999999
3.99966 -1.45736 3.06218
4.1078601 -1.99147 3.06218
4.1831698 -1.13282 3.06218
4.19489 -1.6829799 3.06218
3.9954 -1.21251 3.06218
4.0566802 -1.61774 3.06218
4.0605698 -1.45594 3.06218
3.9665401 -1.57716 3.0669999
4.1899099 -2.0088201 3.06218
4.2150302 -1.15267 3.06218
4.02806 -1.56488 3.0999999
4.2860498 -1.59352 3.06218
4.2181501 -1.98695 3.06218
4.1528502 -1.97475 3.06218
4.25315 -1.23576 3.0999999
4.1956501 -1.55062 3.06218
4.17169 -1.7404799 3.0999999
4.27982 -1.72486 3.06218
4.0892701 -1.5362 3.0999999
4.25666 -1.8736 3.0999999
4.20539 -1.20479 3.0999999
4.1393199 -1.25906 3.06218
4.1501198 -1.26231 3.0999999
4.2628498 -1.56311 3.0999999
3.9895999 -1.39307 3.0999999
4.0767798 -1.49889 3.06218
3.9665401 -1.26604 3.0904601
4.1434102 -1.88721 3.0999999
4.1049099 -1.51802 3.06218
4.1995401 -1.25966 3.06218
4.1178002 -1.9733 3.06218
4.2133698 -1.17363 3.0999999
4.1599398 -1.52642 3.06218
4.25772 -1.6442699 3.06218
4.13238 -1.80001 3.06218
4.1956401 -1.25196 3.06218
4.1175098 -1.63073 3.06218
4.1492801 -2.0966899 3.0999999
4.2011299 -1.95793 3.06218
4.1837001 -1.97346 3.06218
4.0792599 -1.1801 3.06218
4.1380501 -1.45372 3.06218
4.25666 -1.8736 3.0999999
4.1785202 -1.8821501 3.06218
4.0154099 -1.5256701 3.0999999
4.1380501 -1.45372 3.06218
4.16886 -1.8242 3.06218
4.0422502 -1.27749 3.0999999
4.0511198 -1.9795099 3.06218
4.2247901 -1.54805 3.06218
4.2093501 -1.7318799 3.0999999
4.1979599 -1.8777601 3.0999999
4.1162 -1.33801 3.0999999
4.0260201 -1.5478801 3.0999999
4.2459798 -1.18357 3.06218
4.2567301 -1.58189 3.06218
4.1354399 -1.25368 3.06218
4.18255 -1.69258 3.06218
4.0942302 -1.39956 3.0999999
4.2034998 -2.13205 3.0999999
4.2185302 -1.68165 3.0999999
3.9705601 -1.96349 3.0999999
3.9665401 -1.5309 3.0908599
4.2423201 -1.1397001 3.0999999
4.2846599 -2.04304 3.0999999
4.1332798 -1.87409 3.0999999
4.2728901 -1.19954 3.0999999
4.1178002 -1.9733 3.06218
4.1747398 -1.18546 3.06218
4.0416398 -1.21345 3.06218
4.0051198 -1.98202 3.06218
4.12924 -2.0927 3.06218
4.1957302 -1.9536 3.06218
4.1455202 -1.59419 3.0999999
4.1680398 -2.1091599 3.06218
4.0273199 -1.3997 3.0999999
4.2523499 -1.97955 3.0999999
4.1382899 -1.2712801 3.06218
4.1531601 -1.81058 3.0999999
3.9665401 -1.27481 3.08934
4.0825901 -2.013 3.0999999
4.0275502 -1.56387 3.06218
4.1125002 -1.2456501 3.0999999
4.0546999 -1.50771 3.06218
4.0795898 -1.41204 3.06218
4.2162299 -1.86295 3.06218
4.13027 -1.3223 3.0999999
4.08741 -1.94217 3.06218
4.2728901 -1.19954 3.0999999
3.98949 -1.45223 3.0999999
4.2263999 -1.52293 3.06218
4.2569699 -1.13966 3.06218
3.9665401 -1.33339 3.0685899
4.2234201 -2.0722499 3.0999999
4.2690101 -2.0682499 3.0999999
4.2195001 -1.7343 3.0999999
4.02491 -1.97113 3.0999999
3.9665401 -1.30013 3.0661199
4.1106601 -1.93214 3.0999999
4.1350198 -1.2946 3.0999999
3.98001 -1.57235 3.0999999
4.2669401 -1.75087 3.06218
4.1782699 -1.26534 3.0999999
4.2016201 -2.0130401 3.06218
4.2432799 -1.79694 3.06218
4.23035 -1.96733 3.06218
4.2239299 -2.09584 3.06218
4.1654 -1.0778199 3.0999999
4.1098299 -0.326794 3.0999999
4.1662202 -0.70248097 3.0999999
4.02635 -0.140817 3.0999999
4.1698198 -0.76003098 3.06218
4.0574698 -0.73688602 3.06218
4.2285199 -0.152473 3.06218
4.1715498 -0.91600299 3.0999999
3.97206 -0.78902298 3.06218
4.2711301 -0.37542099 3.06218
4.1539402 -0.73919201 3.06218
4.2286601 -0.5183 3.06218
4.0700898 -1.08437 3.06218
3.98104 -0.67595202 3.0999999
3.9665401 -0.56425601 3.09582
3.9718399 -0.67790997 3.0999999
4.0044899 -0.711914 3.06218
4.2870798 -0.66542 3.06218
4.0032401 -0.237121 3.06218
4.2171698 -0.72226 3.06218
4.1343198 -0.138561 3.06218
4.0199499 -0.57131898 3.0999999
4.1951699 -0.64431298 3.06218
4.2722201 -0.755229 3.0999999
4.22679 -0.69044399 3.06218
4.2252002 -0.66162598 3.06218
4.1504798 -0.87920803 3.06218
3.97294 -0.450486 3.0999999
4.0440202 -0.70190102 3.0999999
4.1168699 -1.0897 3.06218
4.2332902 -1.09793 3.06218
4.1429701 -1.07557 3.06218
3.98367 -1.07572 3.06218
4.00459 -1.11312 3.06218
4.1954598 -0.88162601 3.06218
4.2592402 -0.53041899 3.0999999
4.0727201 -0.99988598 3.0999999
4.0981798 -0.53858203 3.06218
4.0033798 -0.45367199 3.06218
4.00318 -0.74289101 3.0999999
3.9665401 -0.69517201 3.09197
4.1301398 -1.10176 3.06218
4.2355599 -1.1203001 3.06218
4.2428999 -1.06568 3.0999999
4.1986098 -0.69647998 3.0999999
4.0171599 -0.180465 3.0999999
4.1970701 -0.641303 3.06218
4.1750202 -0.34516901 3.0999999
4.1431999 -0.935233 3.0999999
4.1301198 -0.188757 3.0999999
4.0687499 -0.402623 3.0999999
4.1327 -0.84836102 3.06218
4.0096002 -1.11854 3.0999999
4.1949 -0.65706301 3.06218
4.28616 -0.95290101 3.0999999
4.22577 -1.0487 3.06218
4.2772198 -0.66323501 3.06218
4.0578899 -0.239812 3.06218
4.2854199 -0.86220998 3.0999999
3.9811599 -0.64951599 3.0999999
4.22543 -0.30694801 3.06218
4.05303 -0.95655799 3.0999999
4.1164598 -0.87044299 3.06218
4.2169099 -0.73723602 3.06218
4.0641298 -1.05983 3.06218
4.1352401 -0.45890799 3.0999999
4.2614799 -0.53769398 3.06218
4.1023502 -0.339443 3.06218
4.0233402 -0.61277801 3.06218
4.1682 -0.61907798 3.06218
4.2335901 -0.71954602 3.06218
4.0609398 -0.29891899 3.0999999
4.1118698 -0.63665402 3.06218
3.9665401 -0.52678698 3.0646
4.13978 -0.83904302 3.0999999
4.0327401 -0.338687 3.0999999
4.2228398 -1.05398 3.0999999
4.2253799 -0.72206402 3.0999999
4.2405901 -0.33858901 3.0999999
4.1766901 -0.67140597 3.06218
4.23879 -1.04918 3.0999999
4.2342901 -0.159251 3.0999999
3.9950199 -0.61628199 3.0999999
4.2346902 -0.58916497 3.06218
4.22226 -0.95173502 3.06218
4.1043401 -0.83777797 3.0999999
3.9665401 -0.80807 3.0738101
4.0538301 -0.83733702 3.0999999
4.2772198 -0.66323501 3.06218
4.0369 -1.079 3.0999999
4.08428 -0.550749 3.06218
4.08465 -0.71494198 3.06218
3.97225 -0.961891 3.06218
3.9665401 -0.69517201 3.09197
3.9665401 -0.63679898 3.0915699
4.1717701 -0.87785298 3.06218
4.1175499 -0.53022498 3.06218
4.0388198 -1.01832 3.06218
3.97225 -0.961891 3.06218
4.1996799 -0.176167 3.0999999
4.2494202 -0.34971601 3.0999999
3.9665401 -0.543625 3.08092
4.1461701 -0.27362499 3.06218
3.9665401 -0.64864802 3.06268
4.0532598 -0.92128402 3.06218
3.9665401 -0.26024601 3.0850899
4.04427 -0.31617901 3.0999999
3.9665401 -1.00769 3.08163
3.9665401 -0.352442 3.0744901
4.2118602 -0.87503099 3.06218
4.1272202 -0.74251002 3.06218
4.2265 -1.04301 3.0999999
4.21594 -0.62023598 3.0999999
4.1951699 -0.64431298 3.06218
4.0883298 -0.17663901 3.06218
4.28795 -1.11027 3.0999999
3.9750099 -0.54796499 3.0999999
4.24054 -0.74545699 3.06218
4.1694598 -1.0328701 3.06218
4.2356 -0.73134899 3.06218
4.0335202 -0.18011899 3.0999999
4.1922302 -0.39709499 3.06218
4.2356 -0.73134899 3.06218
4.1381302 -0.73299599 3.06218
4.1108599 -0.72238803 3.06218
4.2060699 -1.01636 3.06218
4.1679101 -0.64607 3.0999999
3.9665401 -1.05387 3.0911901
3.9665401 -0.30405301 3.0952201
4.1138701 -1.03067 3.06218
4.0330601 -0.492358 3.0999999
4.19065 -0.68371499 3.06218
4.2054 -1.01098 3.0999999
4.0896602 -0.172217 3.0999999
4.27561 -1.0948 3.06218
4.18051 -0.809066 3.0999999
4.2239099 -0.92240202 3.0999999
4.0788698 -1.02791 3.0999999
4.2156901 -0.65432698 3.0999999
4.1679101 -0.32014799 3.0999999
4.1389899 -0.1428 3.06218
4.1002402 -0.619605 3.0999999
4.26861 -1.00936 3.0999999
4.11131 -0.15833201 3.0999999
4.2567601 -1.05384 3.0999999
4.1968098 -0.60875303 3.0999999
4.1374502 -0.47246799 3.0999999
4.0120301 -0.41426101 3.06218
4.1177301 -0.91152102 3.0999999
4.05196 -0.90841502 3.06218
4.2634101 -0.663508 3.06218
3.9748099 -0.86679202 3.06218
4.07692 -0.91266799 3.0999999
4.0506101 -0.29685399 3.0999999
4.1870899 -0.98474503 3.06218
4.0350599 -1.00239 3.06218
4.0264702 -0.48996601 3.0999999
4.01723 -0.15455499 3.0999999
4.0748701 -0.193119 3.0999999
3.9863901 -0.226399 3.0999999
4.09024 -0.59940797 3.06218
4.1464701 -0.216142 3.0999999
3.9688101 -0.68428898 3.0999999
4.0062499 -0.44271699 3.06218
3.9665401 -0.64791799 3.0831101
4.2389302 -0.394153 3.06218
4.2407899 -0.85306001 3.06218
4.0831699 -1.09062 3.06218
3.9853699 -0.64897299 3.0999999
4.0232701 -0.62771302 3.0999999
4.2428999 -1.06568 3.0999999
4.2757902 -0.85192299 3.0999999
4.2452502 -0.34110001 3.0999999
4.1707902 -0.56061703 3.06218
4.2010498 -0.23744801 3.06218
4.1831298 -0.98711801 3.0999999
4.2009602 -0.91562402 3.06218
3.9781899 -0.22843701 3.0999999
4.2091699 -0.755077 3.06218
4.1760802 -0.27715001 3.0999999
4.0007701 -0.444832 3.06218
4.17275 -0.55232799 3.0999999
4.0865998 -0.94598699 3.0999999
4.2020302 -1.08609 3.06218
4.0661001 -0.81650001 3.06218
3.9665401 -0.48327601 3.0622001
4.0461998 -0.847489 3.06218
4.1669998 -0.71621197 3.06218
3.9665401 -0.34330201 3.0694499
4.0070901 -0.73933101 3.0999999
4.2350898 -0.56287402 3.06218
3.98809 -0.92956501 3.06218
4.2799702 -0.81795001 3.06218
4.1406798 -0.475694 3.0999999
3.9963901 -0.78322703 3.06218
4.0214801 -1.12685 3.0999999
4.0398002 -0.98952198 3.06218
4.1347799 -0.77805799 3.06218
4.1261301 -0.57610297 3.0999999
4.0046 -0.734182 3.06218
3.97188 -0.75265598 3.06218
4.21492 -0.960504 3.0999999
4.0975399 -0.429618 3.06218
4.0317402 -0.302706 3.0999999
4.1900702 -0.835235 3.06218
4.10151 -0.62159503 3.0999999
3.9811299 -0.206839 3.06218
4.1022601 -0.84888399 3.0999999
4.1452298 -0.165326 3.06218
4.0830598 -0.99732602 3.06218
4.0531602 -1.08065 3.0999999
4.0806398 -0.669954 3.0999999
4.0203199 -1.05599 3.0999999
4.2501702 -0.99578398 3.06218
4.2592702 -0.87756002 3.0999999
4.21767 -0.95541799 3.06218
4.05722 -1.07259 3.0999999
4.2290201 -0.60180902 3.06218
3.9681599 -0.641451 3.06218
3.9665401 -0.543769 3.0634601
4.13379 -0.15392099 3.0999999
3.9974899 -0.611377 3.0999999
4.15762 -0.84079403 3.06218
4.0682502 -0.14066599 3.06218
4.2781 -0.76756197 3.0999999
4.1039701 -0.17721 3.0999999
3.9781899 -0.22843701 3.0999999
4.2223101 -0.159299 3.0999999
4.08568 -0.96827602 3.0999999
3.96754 -0.21250799 3.06218
4.0834398 -0.15151501 3.06218
4.1410499 -0.50101501 3.06218
4.2638001 -1.08315 3.06218
4.1374502 -0.47246799 3.0999999
3.9841299 -0.72934097 3.06218
4.16782 -0.228597 3.06218
4.1349502 -0.60706103 3.06218
4.13834 -0.90705001 3.0999999
4.0788002 -0.96580899 3.06218
4.0168099 -0.79242402 3.0999999
4.0830798 -1.02218 3.06218
4.0507698 -0.290095 3.06218
4.27565 -0.90724701 3.0999999
4.2311502 -0.314928 3.06218
4.2024102 -0.75624299 3.06218
4.2122002 -0.56386799 3.06218
4.02739 -1.0158401 3.06218
4.2263498 -1.07544 3.06218
4.0253301 -0.56143999 3.0999999
3.9803901 -0.627294 3.0999999
4.2111702 -0.50149202 3.06218
4.1164498 -0.83625501 3.0999999
4.0922599 -0.47323599 3.06218
4.0685701 -0.480786 3.0999999
4.2781 -0.76756197 3.0999999
4.26021 -0.86776602 3.06218
4.11937 -0.65284902 3.0999999
4.0367999 -0.54268903 3.0999999
4.2163401 -0.93181598 3.06218
4.0661001 -0.81650001 3.06218
4.2039199 -0.55988401 3.06218
4.0598998 -0.94634199 3.06218
4.2502198 -0.58623397 3.06218
4.2125201 -0.81228399 3.06218
4.1595101 -0.57548302 3.0999999
4.1949 -0.65706301 3.06218
4.1476402 -0.326594 3.06218
4.2343502 -0.88316 3.0999999
3.9789801 -0.790052 3.06218
4.27426 -0.92927802 3.06218
4.1652899 -0.94806403 3.06218
4.0357499 -0.68252498 3.0999999
4.17905 -0.283654 3.06218
4.2312002 -0.99407798 3.06218
4.05299 -0.66152698 3.06218
4.2361302 -1.05755 3.06218
4.1943498 -1.02037 3.0999999
4.0465698 -0.41887501 3.0999999
4.0356302 -0.308716 3.06218
4.1792498 -1.09979 3.06218
4.0567298 -1.06881 3.06218
4.2670698 -0.339834 3.0999999
4.24193 -0.84111899 3.0999999
4.17559 -0.64919603 3.06218
4.1627002 -1.08074 3.06218
4.0384598 -0.23993 3.0999999
4.0397301 -0.60418898 3.06218
4.2340102 -0.99241602 3.06218
4.1437101 -0.79418403 3.06218
4.0841298 -0.79130697 3.0999999
4.1854701 -0.65040702 3.0999999
4.03792 -0.23657601 3.0999999
4.2246699 -0.28357601 3.0999999
4.0591998 -0.68211901 3.0999999
4.11305 -0.94307899 3.0999999
4.1122999 -1.04598 3.06218
4.2773399 -1.08865 3.06218
3.98738 -0.212615 3.0999999
4.0531001 -1.12072 3.0999999
4.1954598 -0.88162601 3.06218
4.2068601 -1.08639 3.06218
3.9988599 -0.89666498 3.06218
3.9742401 -0.324644 3.06218
4.2809501 -0.338967 3.06218
4.2867398 -0.841263 3.06218
4.1100798 -0.42690599 3.0999999
4.2201099 -0.65228301 3.0999999
4.0050201 -0.373485 3.06218
4.20158 -0.63670099 3.0999999
4.2867298 -0.28273401 3.06218
4.0632 -0.64529198 3.0999999
4.0095 -1.07627 3.06218
4.1513 -1.08927 3.06218
4.0062499 -0.44271699 3.06218
4.2866101 -0.32946399 3.0999999
4.1138 -0.97965699 3.0999999
4.0858798 -0.87464398 3.0999999
4.0823202 -0.21145301 3.0999999
4.2261901 -1.09813 3.0999999
3.9949501 -0.87455702 3.06218
4.0475001 -0.79664701 3.06218
4.1760802 -0.27715001 3.0999999
4.1710501 -0.336292 3.0999999
4.26964 -0.40036601 3.0999999
4.08039 -0.85403001 3.0999999
4.1613102 -0.77855599 3.0999999
4.2403798 -0.230864 3.0999999
4.0719099 -0.82922202 3.0999999
4.04357 -0.58722001 3.06218
3.9665401 -0.157144 3.06915
4.0756798 -1.1023 3.0999999
4.0864301 -0.91807699 3.0999999
3.9847901 -1.12717 3.0999999
4.1227002 -0.86546302 3.0999999
4.0883298 -0.17663901 3.06218
4.0049701 -0.460343 3.06218
3.9665401 -0.83339298 3.0940199
4.0529199 -0.89239699 3.06218
4.2879 -0.587816 3.06218
4.1361098 -0.444074 3.06218
4.2865601 -0.97200799 3.06218
4.1900401 -0.70098501 3.0999999
4.1003199 -0.75978398 3.06218
3.9665401 -0.35573301 3.0990701
3.9665401 -0.47484201 3.06902
4.2326698 -0.98211002 3.0999999
4.1524 -1.0119801 3.06218
3.98298 -0.83158898 3.06218
4.07968 -0.19408099 3.06218
4.0841298 -0.79130697 3.0999999
4.2589002 -0.56152701 3.06218
4.1433802 -1.02359 3.06218
4.2536998 -0.69271702 3.0999999
4.19663 -0.54607397 3.0999999
4.0191598 -0.44209099 3.0999999
4.06745 -1.0162801 3.0999999
4.2154598 -0.85380697 3.0999999
4.09729 -1.0988801 3.06218
4.2360702 -0.32921001 3.0999999
4.1949 -0.65706301 3.06218
4.0433002 -1.0550801 3.0999999
4.2364202 -0.90196198 3.0999999
4.1854701 -0.65040702 3.0999999
4.0858698 -0.448616 3.06218
4.0682502 -0.14066599 3.06218
4.0290799 -0.65028203 3.0999999
4.2407899 -0.85306001 3.06218
4.2824798 -0.82372802 3.06218
4.0722699 -0.27536899 3.06218
3.98265 -0.65985698 3.0999999
4.1570702 -0.82060701 3.0999999
4.2483301 -0.34378001 3.0999999
4.0981798 -0.53858203 3.06218
4.1908398 -0.87724698 3.06218
4.2568102 -1.08088 3.0999999
4.0294299 -0.614676 3.0999999
4.0826802 -0.40393001 3.06218
4.0693002 -0.97503197 3.0999999
4.1302299 -0.61340499 3.06218
4.2462001 -0.55352402 3.0999999
4.1613002 -0.39739299 3.06218
4.1476402 -0.326594 3.06218
4.26682 -0.67303002 3.06218
3.97438 -1.09724 3.06218
3.9665401 -0.262483 3.08866
4.0261798 -0.40401301 3.0999999
4.2811499 -0.77341598 3.06218
4.1437101 -0.79418403 3.06218
3.9665401 -1.00998 3.0718901
4.0039902 -0.83652699 3.0999999
4.0840602 -0.340334 3.0999999
4.0843301 -0.786026 3.0999999
4.2167802 -0.88308102 3.06218
4.2773399 -1.08865 3.06218
4.2261901 -1.09813 3.0999999
4.2149401 -0.65119499 3.0999999
4.10151 -0.62159503 3.0999999
4.1066298 -1.08035 3.0999999
4.2795 -0.95143002 3.06218
4.0957799 -0.36173299 3.06218
4.1212001 -1.05316 3.0999999
4.1488199 -1.13006 3.0999999
4.2056398 -0.517259 3.0999999
3.98434 -0.90285897 3.0999999
4.0903502 -1.09905 3.0999999
4.0648799 -0.87271899 3.0999999
3.97399 -0.66927397 3.06218
3.97383 -0.373386 3.06218
4.0330601 -0.492358 3.0999999
4.0233402 -0.61277801 3.06218
4.0806098 -0.590864 3.06218
4.1227398 -0.77516502 3.06218
4.13276 -0.39595699 3.0999999
4.2769799 -0.815341 3.06218
4.1291699 -1.03412 3.0999999
4.2000799 -0.16574199 3.0999999
4.2305198 -0.325376 3.0999999
4.2253799 -0.72206402 3.0999999
4.2800002 -1.04302 3.0999999
4.0829401 -1.0122 3.06218
4.0896602 -0.172217 3.0999999
4.1291699 -1.03412 3.0999999
4.21984 -0.701159 3.0999999
4.1747799 -1.03102 3.0999999
4.2599101 -0.34242901 3.0999999
4.2677002 -0.71089399 3.0999999
4.0125599 -1.09883 3.0999999
4.0657501 -0.69860399 3.0999999
4.2831602 -0.89533198 3.06218
4.09407 -1.09409 3.0999999
4.1310501 -0.36182699 3.0999999
4.0219698 -0.346876 3.0999999
4.1048298 -0.140931 3.06218
4.2125602 -0.35278699 3.0999999
4.07971 -0.67285198 3.0999999
4.09304 -0.14859501 3.06218
4.1289201 -0.276474 3.0999999
4.1329699 -0.147412 3.0999999
3.99348 -0.28904599 3.06218
4.13763 -0.324608 3.0999999
4.0282698 -1.04377 3.06218
4.0981798 -0.53858203 3.06218
4.16609 -0.91615802 3.0999999
3.9888899 -0.78658801 3.06218
4.1770701 -0.609433 3.0999999
4.0963802 -0.81773603 3.0999999
4.0700898 -0.99208802 3.0999999
3.9886999 -0.53304303 3.0999999
3.99652 -0.166881 3.06218
4.07336 -0.36113799 3.0999999
4.2388301 -1.0858901 3.06218
4.1866398 -0.58080298 3.06218
4.1568198 -0.543688 3.0999999
4.2485499 -0.668809 3.0999999
3.9729099 -0.14075001 3.0999999
4.0473599 -0.30228099 3.0999999
4.1513 -1.08927 3.06218
4.1747098 -0.54528499 3.06218
4.1227398 -0.77516502 3.06218
4.0659699 -1.1057 3.06218
4.1375999 -0.39359799 3.0999999
4.1595101 -0.57548302 3.0999999
4.19032 -0.68699503 3.0999999
3.9665401 -0.26024601 3.0850899
4.1029 -1.05075 3.06218
4.2089601 -0.21901301 3.0999999
4.0933099 -1.00411 3.06218
4.1377401 -0.74166101 3.06218
4.2102299 -1.08255 3.06218
4.0851998 -0.42236999 3.06218
4.0117602 -0.773471 3.06218
4.0609398 -0.29891899 3.0999999
4.2326498 -0.75450498 3.06218
4.2261 -0.57268798 3.06218
4.0776 -0.92047298 3.06218
4.05722 -1.07259 3.0999999
3.9837101 -1.0642101 3.06218
4.0600801 -0.361619 3.06218
4.26331 -0.55488402 3.06218
4.2722502 -0.52035898 3.0999999
4.0693798 -0.43095401 3.0999999
4.1413598 -0.68384498 3.06218
4.27737 -0.365468 3.0999999
4.0942502 -0.218729 3.0999999
4.2282901 -0.980838 3.0999999
4.2353702 -0.524894 3.06218
3.9673901 -0.936737 3.06218
4.0774899 -0.50348198 3.06218
4.1834102 -0.52870798 3.06218
4.12818 -0.23805299 3.0999999
4.0659699 -1.1057 3.06218
3.9750099 -0.54796499 3.0999999
4.0398302 -0.746701 3.06218
4.18853 -0.41218799 3.06218
4.08638 -0.89246601 3.06218
4.0968099 -0.820072 3.06218
4.1564298 -0.604653 3.0999999
4.2171302 -0.34904301 3.0999999
4.0310402 -0.75914699 3.06218
4.25418 -0.44667101 3.06218
4.2080998 -0.86074102 3.06218
4.18051 -0.809066 3.0999999
4.0676899 -0.83746302 3.06218
3.9665401 -0.80038399 3.0731499
3.97194 -1.0197099 3.0999999
3.9973099 -0.82590401 3.06218
4.0817699 -0.29073 3.0999999
4.151 -0.41686201 3.0999999
3.9767101 -0.99548 3.0999999
4.0398302 -0.746701 3.06218
3.97225 -0.961891 3.06218
4.0350599 -0.750274 3.06218
4.2822399 -0.65897602 3.06218
4.06495 -0.75009602 3.0999999
4.1157498 -0.84248799 3.0999999
4.16782 -0.228597 3.06218
4.2148299 -0.41573101 3.06218
4.08465 -0.71494198 3.06218
3.9665401 -0.75459999 3.09076
4.04741 -0.758376 3.0999999
4.1802602 -0.99363202 3.06218
3.9937401 -0.27453101 3.0999999
3.9884501 -1.01095 3.06218
3.9736199 -0.538225 3.0999999
4.05762 -0.57126302 3.06218
4.08322 -0.63846701 3.0999999
4.0483298 -0.75178802 3.0999999
3.99999 -0.79721802 3.06218
4.12992 -0.325436 3.06218
4.0574698 -0.73688602 3.06218
3.97843 -0.66845798 3.06218
4.2104902 -0.81284302 3.0999999
4.0762501 -0.426718 3.0999999
4.2586999 -1.01419 3.0999999
3.98243 -0.145399 3.0999999
4.0349498 -1.10829 3.0999999
4.0330901 -0.51425302 3.06218
4.2543101 -0.70414001 3.0999999
4.0829401 -1.0122 3.06218
3.9877801 -0.767133 3.06218
4.2525101 -0.56357598 3.0999999
4.0501099 -0.14012399 3.06218
3.9730599 -0.195823 3.06218
4.1177301 -0.91152102 3.0999999
4.1110601 -0.418845 3.0999999
4.0880399 -0.383874 3.0999999
4.1612902 -0.67099297 3.0999999
4.20048 -1.02768 3.06218
4.0669799 -0.64995301 3.06218
4.2560401 -0.36006501 3.06218
4.1934199 -0.191903 3.06218
4.24649 -0.45644799 3.06218
3.9929199 -0.80302602 3.0999999
4.2065601 -0.234137 3.06218
3.9665401 -0.47484201 3.06902
4.0207901 -0.90585601 3.0999999
4.14255 -0.73297501 3.0999999
4.0199599 -0.33399099 3.0999999
4.1933699 -0.4032 3.0999999
4.2690401 -0.41802999 3.06218
4.2345099 -0.23299 3.06218
4.1629801 -0.28107101 3.0999999
4.0892401 -0.71870798 3.0999999
4.0344501 -1.08887 3.06218
4.0293298 -1.0911601 3.06218
4.2388802 -0.54109001 3.0999999
4.2210898 -0.78392899 3.06218
4.0613999 -0.18595301 3.0999999
4.07798 -0.46858299 3.06218
4.26331 -0.55488402 3.06218
4.2382998 -0.83757001 3.0999999
4.03616 -0.74269801 3.06218
4.2638402 -0.76358002 3.0999999
4.0212102 -1.07985 3.0999999
4.2463398 -0.93948603 3.06218
4.1935 -0.56730002 3.06218
3.9665401 -0.97090799 3.0681701
4.2397299 -0.219836 3.06218
4.1947298 -1.12339 3.06218
4.1676998 -0.96443802 3.06218
4.2535601 -0.57896501 3.06218
4.0859399 -0.289608 3.0999999
4.2252002 -0.66162598 3.06218
4.2519202 -0.37867001 3.0999999
4.0563798 -1.07019 3.0999999
4.18957 -0.207674 3.06218
4.0804601 -0.997576 3.0999999
4.2054701 -0.33947301 3.06218
4.0935998 -0.61341101 3.0999999
4.0205998 -0.68286598 3.0999999
3.9941499 -0.62146598 3.0999999
4.11906 -0.44594201 3.0999999
4.28616 -0.95290101 3.0999999
4.2560101 -0.381735 3.06218
4.0314398 -0.36625901 3.0999999
4.15762 -0.84079403 3.06218
4.0931101 -0.197963 3.0999999
3.9907701 -0.70591301 3.0999999
4.2101402 -0.62480402 3.06218
4.0884299 -1.07075 3.0999999
4.1009898 -0.55392802 3.06218
4.2528601 -0.91077602 3.0999999
4.2308898 -0.55405998 3.06218
4.0490999 -0.375595 3.0999999
4.0747199 -0.58209503 3.06218
4.1831298 -0.98711801 3.0999999
3.9665401 -0.262483 3.08866
4.0362101 -0.31575999 3.0999999
4.2259598 -0.77788001 3.06218
3.9876499 -0.58764797 3.0999999
4.2585201 -1.00967 3.06218
4.1640201 -0.60377198 3.06218
3.99842 -0.21045899 3.0999999
4.2054701 -0.33947301 3.06218
3.9873199 -0.82783097 3.0999999
4.1715102 -0.138505 3.06218
4.0836401 -0.75833499 3.0999999
4.1265302 -0.66074502 3.06218
4.0014601 -1.06122 3.0999999
4.0423598 -0.42301801 3.0999999
3.9963901 -0.78322703 3.06218
4.2143698 -0.17197999 3.06218
4.1031699 -0.97697502 3.0999999
4.12432 -0.24672499 3.0999999
3.9665401 -0.543625 3.08092
4.2585201 -1.00967 3.06218
4.1882701 -0.82605302 3.06218
3.9665401 -0.89810598 3.09517
4.0583401 -0.57589102 3.0999999
4.1048899 -0.22681899 3.06218
4.2722201 -0.755229 3.0999999
4.09903 -0.891581 3.0999999
4.0962 -0.72718698 3.06218
4.19628 -0.90542603 3.06218
4.2543898 -1.11528 3.0999999
4.0250902 -0.74498898 3.06218
4.1967001 -0.15307599 3.0999999
4.1846299 -0.68312198 3.06218
4.23419 -0.92527503 3.0999999
4.02671 -0.51788199 3.0999999
4.0980401 -0.47798899 3.0999999
4.0377302 -0.86103803 3.0999999
4.2154598 -0.85380697 3.0999999
3.9665401 -1.0486799 3.0994
4.0841298 -0.79130697 3.0999999
3.98366 -0.73660302 3.0999999
3.9949501 -0.87455702 3.06218
3.9665401 -0.63692802 3.0822599
3.9665401 -0.20029201 3.07604
3.97943 -0.207908 3.06218
4.2118201 -0.48512501 3.06218
4.1516099 -0.83103698 3.0999999
4.1888099 -0.231612 3.0999999
4.07408 -0.63541299 3.0999999
4.0391898 -0.70497203 3.0999999
3.96785 -0.68033397 3.06218
4.0394101 -0.80054897 3.0999999
4.0472798 -0.88485497 3.0999999
3.9665401 -0.447393 3.0875299
4.08041 -0.775325 3.06218
4.28795 -1.11027 3.0999999
4.2807398 -0.85031599 3.0999999
4.13834 -0.90705001 3.0999999
4.04427 -0.31617901 3.0999999
4.24649 -0.978661 3.0999999
4.1162701 -0.75538301 3.06218
4.0774899 -0.50348198 3.06218
4.1456599 -0.177709 3.06218
4.2034001 -1.12682 3.0999999
4.0732799 -0.41345 3.0999999
4.2094798 -0.87029898 3.0999999
4.1759901 -0.48521501 3.0999999
4.1795201 -0.96144301 3.0999999
4.10044 -0.598692 3.0999999
4.0578899 -0.239812 3.06218
4.2722101 -0.92033201 3.0999999
4.1325698 -0.27462 3.0999999
3.9665401 -0.675699 3.0717299
4.1016898 -0.80454201 3.06218
4.2325702 -0.710307 3.0999999
4.0718899 -1.01995 3.0999999
4.0774598 -0.45045799 3.06218
3.9907701 -0.70591301 3.0999999
4.1708498 -0.35002601 3.0999999
4.1441002 -1.10001 3.06218
4.04741 -0.758376 3.0999999
3.9771299 -0.61769003 3.0999999
4.0472798 -0.88485497 3.0999999
4.1233101 -0.90392298 3.0999999
4.20647 -0.579808 3.06218
4.06989 -1.11568 3.06218
4.0899601 -0.89882803 3.0999999
4.25806 -0.29588401 3.0999999
4.02595 -1.09216 3.0999999
4.0169802 -1.02643 3.0999999
4.1331701 -0.471766 3.06218
4.1671801 -0.451197 3.06218
4.0149798 -0.65214401 3.0999999
4.2038298 -0.43606499 3.06218
4.22679 -0.69044399 3.06218
4.0971599 -0.707156 3.06218
4.0626898 -0.61021 3.0999999
4.1698899 -0.224929 3.06218
4.0421801 -1.0245 3.0999999
4.0198302 -0.830172 3.06218
4.2567 -0.42459601 3.0999999
4.1373601 -0.48202899 3.0999999
4.1715598 -0.38578701 3.0999999
4.12816 -0.410629 3.0999999
4.0074501 -0.420957 3.0999999
4.1489401 -0.88766801 3.06218
4.2659898 -0.84874898 3.06218
4.0094299 -0.90958798 3.0999999
3.9665401 -0.61474001 3.0969901
4.0524101 -0.89932102 3.06218
4.0387502 -0.61050999 3.06218
4.1280699 -0.53301102 3.06218
4.2690001 -0.31229001 3.0999999
4.0694199 -0.248533 3.06218
4.20403 -0.943353 3.0999999
4.0935898 -0.415362 3.0999999
4.0995898 -0.213383 3.0999999
4.1378398 -0.251118 3.06218
4.1240501 -0.82323802 3.0999999
4.1751199 -0.913481 3.0999999
4.2312298 -0.67417401 3.06218
4.2822399 -0.65897602 3.06218
4.2586999 -1.01419 3.0999999
4.1199799 -0.89648902 3.06218
4.2642999 -0.69582802 3.06218
3.9665401 -0.57119602 3.0625501
3.9753799 -0.79891503 3.0999999
4.1194601 -0.51525903 3.06218
4.07408 -0.63541299 3.0999999
3.9967799 -0.70663601 3.06218
4.0490999 -0.375595 3.0999999
4.1965799 -0.44187 3.06218
3.9665401 -0.75459999 3.09076
4.1085401 -0.33473799 3.0999999
4.0692 -0.30899 3.06218
4.2104301 -0.73391098 3.0999999
3.9727499 -0.952268 3.06218
4.0168099 -0.79242402 3.0999999
4.2218699 -0.79967999 3.06218
3.9665401 -1.0209301 3.09425
3.9711201 -0.46889901 3.06218
4.2164302 -0.72406501 3.06218
4.1570702 -0.400527 3.0999999
3.9955001 -0.28746599 3.06218
3.9683599 -0.79160601 3.0999999
4.1755099 -1.12609 3.0999999
4.184 -0.82632601 3.0999999
3.9665401 -0.47008601 3.08761
4.02635 -0.140817 3.0999999
3.9749401 -0.77121001 3.06218
4.1676998 -0.96443802 3.06218
3.97843 -0.66845798 3.06218
3.9877801 -0.767133 3.06218
4.0580802 -0.43680099 3.06218
4.2198501 -1.0966901 3.0999999
3.9928999 -0.80592698 3.0999999
3.9939599 -0.80060101 3.06218
4.2326698 -0.98211002 3.0999999
4.1727099 -0.42291301 3.06218
4.1401701 -0.35741699 3.06218
3.9877501 -0.38286 3.0999999
3.9719 -0.26689199 3.0999999
4.2125101 -0.98145902 3.06218
4.1083598 -1.05308 3.06218
4.1079102 -0.78752702 3.0999999
4.1258602 -0.343826 3.06218
4.1261301 -0.57610297 3.0999999
4.0177798 -0.69479001 3.06218
4.0815101 -0.802342 3.0999999
4.1031699 -0.97697502 3.0999999
3.99879 -0.78115797 3.0999999
4.2095799 -0.194215 3.06218
4.1645398 -0.79014599 3.0999999
4.0574298 -1.05869 3.0999999
4.0810599 -0.199028 3.06218
4.1537099 -0.170921 3.06218
4.02249 -0.26068401 3.06218
4.1564298 -0.604653 3.0999999
4.151 -0.41686201 3.0999999
4.1739702 -0.829198 3.0999999
4.2711201 -1.0563 3.06218
4.0334501 -1.0162801 3.0999999
4.0083799 -0.97173101 3.06218
4.2811499 -0.77341598 3.06218
4.2757702 -0.85061699 3.0999999
4.1005502 -1.0727299 3.0999999
4.08178 -0.93776703 3.0999999
4.2201099 -0.65228301 3.0999999
4.27635 -0.43660399 3.06218
4.0851498 -0.99546301 3.06218
4.19663 -0.54607397 3.0999999
4.1998601 -0.62365901 3.0999999
4.15238 -0.96108401 3.0999999
4.1154399 -0.37156799 3.06218
3.9810901 -0.147756 3.06218
4.0862899 -0.80645198 3.06218
4.0027399 -0.145852 3.06218
4.23698 -0.52829498 3.0999999
4.0906801 -0.191232 3.06218
3.9665401 -0.72750199 3.06446
4.0070901 -0.73933101 3.0999999
4.2013698 -0.87554801 3.0999999
4.2364502 -0.76979703 3.0999999
4.0202599 -0.26879299 3.06218
4.1177301 -0.91152102 3.0999999
3.9745901 -0.69019002 3.0999999
4.0269198 -1.00108 3.0999999
3.9941499 -0.62146598 3.0999999
3.98809 -0.92956501 3.06218
4.1564298 -0.604653 3.0999999
3.98281 -0.320685 3.06218
3.9665401 -0.97794801 3.08143
3.9665401 -0.34330201 3.0694499
4.2632298 -1.07337 3.0999999
4.11026 -0.68013698 3.06218
4.02356 -0.59426999 3.0999999
4.1801901 -1.07052 3.0999999
4.2689099 -0.495857 3.06218
4.2831802 -1.0424401 3.06218
3.9688101 -0.68428898 3.0999999
4.21699 -0.33744201 3.0999999
3.9692099 -0.82655698 3.0999999
4.0858698 -0.448616 3.06218
4.0692 -0.30899 3.06218
4.0845799 -0.81292099 3.0999999
4.2543802 -0.66195703 3.0999999
3.9986999 -0.88179898 3.0999999
4.0776401 -0.31048501 3.0999999
4.0334501 -1.0162801 3.0999999
4.2431302 -0.53699601 3.06218
4.0198798 -1.05406 3.06218
4.00318 -0.74289101 3.0999999
4.1164598 -0.87044299 3.06218
4.1777802 -0.68177903 3.0999999
4.23001 -0.29437599 3.06218
4.1667199 -0.81786197 3.06218
4.19065 -0.68371499 3.06218
4.1469102 -0.85389698 3.0999999
4.1519198 -0.41226101 3.06218
4.0272298 -0.87379801 3.0999999
4.1875401 -0.36203599 3.06218
4.1694598 -1.0328701 3.06218
4.1970701 -0.641303 3.06218
4.0716901 -0.463873 3.06218
4.1633401 -0.62797701 3.0999999
4.0771999 -0.43178901 3.0999999
4.1387801 -0.134928 3.0999999
4.2095098 -0.77853501 3.06218
3.97561 -0.88412303 3.0999999
4.23001 -0.29437599 3.06218
4.0054498 -1.07376 3.0999999
4.0116501 -1.12033 3.06218
3.97104 -0.96249199 3.0999999
4.2879 -0.587816 3.06218
4.2614799 -0.53769398 3.06218
4.1556201 -0.60616899 3.06218
4.0443301 -0.71294397 3.0999999
4.02911 -0.71169502 3.06218
4.1505399 -0.43482599 3.06218
4.1005502 -1.0727299 3.0999999
3.9665401 -0.41565999 3.0753801
4.2294402 -0.47953299 3.0999999
4.00741 -0.89154398 3.06218
4.23667 -0.508632 3.0999999
4.1251101 -0.85333598 3.0999999
4.1612802 -0.91374499 3.06218
4.16432 -1.0364799 3.0999999
4.2452502 -0.34110001 3.0999999
4.1353402 -0.81707102 3.0999999
4.0692 -0.30899 3.06218
4.1359601 -0.56967998 3.0999999
4.0895 -0.48909801 3.0999999
4.03687 -0.87462199 3.0999999
4.1826501 -0.54586601 3.0999999
3.9931099 -0.80202901 3.06218
4.2690001 -0.31229001 3.0999999
4.2228398 -1.05398 3.0999999
4.0108099 -0.28344101 3.0999999
3.9939599 -0.80060101 3.06218
4.25949 -0.568165 3.06218
4.0233002 -0.89904398 3.06218
4.20403 -0.943353 3.0999999
4.2195201 -0.22996201 3.0999999
4.06815 -0.175955 3.06218
4.2674198 -0.74330699 3.0999999
4.07197 -0.54621202 3.0999999
4.2594299 -0.39597201 3.06218
4.28124 -0.46705401 3.0999999
4.2076101 -0.334465 3.06218
4.0350599 -1.00239 3.06218
4.1437302 -1.08521 3.06218
4.2089601 -0.21901301 3.0999999
4.1774802 -0.166218 3.06218
4.18504 -0.269642 3.0999999
4.0233998 -0.85410798 3.0999999
4.2585702 -0.76524299 3.06218
4.1570702 -0.400527 3.0999999
4.19835 -0.35255101 3.06218
4.12818 -0.23805299 3.0999999
4.05512 -1.03203 3.0999999
4.1310501 -0.36182699 3.0999999
4.28583 -0.66657698 3.0999999
3.9665401 -0.18971001 3.0871999
4.20052 -0.20717099 3.06218
4.13379 -0.15392099 3.0999999
4.05864 -0.91624701 3.0999999
4.10956 -0.75086099 3.06218
4.1751199 -0.913481 3.0999999
4.2118201 -0.187941 3.06218
4.2241402 -1.1090699 3.0999999
4.2319698 -0.25176299 3.06218
3.9865401 -0.96744001 3.0999999
4.2627602 -1.01687 3.0999999
4.0343199 -1.01133 3.0999999
4.22679 -0.69044399 3.06218
4.04948 -0.98659301 3.0999999
4.2036901 -0.153988 3.0999999
3.98926 -1.12857 3.06218
4.1815801 -0.363814 3.06218
4.2252302 -0.73652202 3.06218
4.2796402 -0.92512 3.06218
3.9723101 -0.26597801 3.06218
4.0502601 -0.60999399 3.0999999
3.96767 -0.16800199 3.06218
3.98648 -0.61453003 3.0999999
4.1290498 -0.63846898 3.0999999
4.02911 -0.71169502 3.06218
4.1610098 -0.774113 3.0999999
3.99348 -0.28904599 3.06218
4.1966701 -0.34596199 3.0999999
4.1402302 -0.29155001 3.0999999
4.2677102 -0.77581197 3.06218
4.27141 -0.891047 3.0999999
4.2560101 -0.381735 3.06218
4.1760802 -0.27715001 3.0999999
4.19734 -0.95241302 3.06218
4.2151098 -0.91214103 3.0999999
4.1381102 -0.91178399 3.0999999
4.2500401 -1.03948 3.0999999
3.9665401 -0.88759601 3.08918
4.04948 -0.98659301 3.0999999
4.0694199 -0.248533 3.06218
3.9863901 -0.226399 3.0999999
4.0318098 -0.23739401 3.06218
4.2068601 -1.08639 3.06218
4.09903 -0.891581 3.0999999
4.2614799 -0.53769398 3.06218
4.1570702 -0.82060701 3.0999999
4.2543802 -0.66195703 3.0999999
4.1507101 -0.34193099 3.0999999
4.046 -0.214296 3.06218
4.0858798 -0.87464398 3.0999999
4.22258 -0.229305 3.0999999
4.0810099 -0.66376501 3.06218
4.03684 -0.73843199 3.06218
4.0369301 -0.90891498 3.0999999
4.2241402 -1.1090699 3.0999999
3.9843199 -0.47216401 3.0999999
4.1705899 -0.56047302 3.06218
4.0012598 -0.52674198 3.0999999
4.28583 -0.66657698 3.0999999
3.9665401 -0.31720901 3.0760601
4.2137299 -0.74441898 3.0999999
4.23667 -0.508632 3.0999999
4.0398002 -0.98952198 3.06218
4.1200299 -0.68118203 3.0999999
4.2877102 -0.44278201 3.06218
4.1292 -1.0752 3.0999999
4.1733799 -1.0432 3.06218
4.2775402 -0.89671499 3.06218
4.0202599 -0.26879299 3.06218
4.0694199 -0.248533 3.06218
4.1442599 -0.15857001 3.06218
3.9665401 -0.59590101 3.0629201
4.06952 -0.15210199 3.06218
4.1227398 -0.77516502 3.06218
4.12116 -1.1179399 3.0999999
4.1589098 -0.38766301 3.0999999
4.0465698 -0.41887501 3.0999999
3.9665401 -0.262483 3.08866
3.9840901 -0.146336 3.06218
4.0332098 -0.46270701 3.0999999
4.2186399 -0.576626 3.06218
4.2455301 -0.33362699 3.0999999
4.1066298 -1.08035 3.0999999
4.1426702 -0.612993 3.0999999
4.1967201 -0.92669201 3.06218
4.24616 -0.63738298 3.06218
4.18853 -0.41218799 3.06218
4.1504102 -0.59352797 3.06218
4.06815 -0.175955 3.06218
3.9665401 -0.56425601 3.09582
3.97528 -0.77090299 3.0999999
3.96821 -0.94999599 3.06218
4.2390299 -0.835621 3.0999999
4.1613102 -0.77855599 3.0999999
4.0981798 -0.53858203 3.06218
4.0199499 -0.57131898 3.0999999
4.2223101 -0.159299 3.0999999
4.1753101 -0.96013099 3.06218
3.9706099 -0.79095101 3.0999999
4.06599 -0.64056098 3.06218
4.1463299 -0.77419198 3.0999999
3.9665401 -1.12927 3.0831101
4.1813202 -0.57055801 3.06218
4.15976 -0.93419701 3.06218
3.9754801 -1.07928 3.0999999
4.2034101 -0.89761299 3.0999999
4.1533298 -0.357952 3.06218
4.05229 -0.860659 3.0999999
3.9931099 -0.80202901 3.06218
4.11234 -1.07455 3.0999999
4.19032 -0.68699503 3.0999999
4.0486302 -0.72144502 3.06218
4.2588501 -1.02668 3.0999999
4.06599 -0.64056098 3.06218
4.1484399 -0.274358 3.0999999
4.2331901 -0.581007 3.0999999
4.05196 -0.90841502 3.06218
3.9669199 -1.00666 3.06218
3.9665401 -0.772452 3.08342
3.9851501 -0.50887698 3.06218
3.9665401 -0.262483 3.08866
4.2639198 -0.49206501 3.06218
3.9665401 -0.232292 3.06253
4.1371498 -0.61690801 3.06218
4.2325902 -0.51853597 3.0999999
4.17275 -0.55232799 3.0999999
4.2367802 -0.52466601 3.06218
4.2610402 -0.97957402 3.06218
4.23347 -0.85381901 3.06218
4.1252999 -0.47185999 3.0999999
4.0785198 -1.10833 3.0999999
4.0330901 -0.51425302 3.06218
4.2073798 -0.45460799 3.06218
4.08254 -0.51922202 3.0999999
4.15978 -0.62202698 3.0999999
3.97769 -1.1091 3.06218
4.09761 -0.37770501 3.06218
4.1105299 -0.436425 3.06218
4.2656898 -0.57841599 3.06218
4.2476501 -1.06089 3.0999999
4.02457 -0.854568 3.06218
3.9754801 -1.07928 3.0999999
4.1477699 -0.95063603 3.0999999
4.2095098 -0.77853501 3.06218
4.0084 -0.214092 3.0999999
4.1676998 -0.96443802 3.06218
4.16609 -0.91615802 3.0999999
3.9665401 -0.143694 3.07584
4.0836902 -1.05942 3.06218
4.1591802 -0.64473498 3.0999999
4.09304 -0.14859501 3.06218
4.2597599 -0.48865399 3.06218
4.09903 -0.75625002 3.06218
4.12921 -0.606161 3.0999999
4.1021299 -0.70607501 3.06218
4.1135402 -1.09798 3.06218
3.9860001 -1.04732 3.0999999
4.2225399 -0.64732701 3.0999999
4.07269 -0.34200901 3.06218
4.1722202 -0.56924403 3.0999999
4.2604198 -0.83044499 3.0999999
4.0553999 -0.67704499 3.06218
4.0981798 -0.53858203 3.06218
3.97769 -1.1091 3.06218
4.0872302 -0.26010901 3.06218
3.9795401 -0.96223301 3.0999999
4.1685801 -0.41118601 3.06218
4.0841599 -0.202877 3.06218
4.0049701 -0.460343 3.06218
4.1766901 -0.67140597 3.06218
4.2190099 -0.49687999 3.06218
4.0855098 -0.30536601 3.06218
4.2583699 -1.07477 3.06218
4.0707698 -0.49279401 3.0999999
4.2256198 -1.02994 3.06218
3.98577 -1.00955 3.0999999
4.0672898 -0.59291899 3.0999999
4.1419802 -0.651357 3.06218
4.09304 -0.14859501 3.06218
4.2388802 -0.54109001 3.0999999
4.0722699 -0.27536899 3.06218
4.2775402 -0.89671499 3.06218
4.0594602 -0.50399703 3.06218
4.1164598 -0.87044299 3.06218
3.98264 -0.48375899 3.06218
4.1154399 -0.37156799 3.06218
4.0652699 -0.248777 3.0999999
4.0286498 -0.452755 3.0999999
4.2831202 -0.51884001 3.06218
4.22226 -0.95173502 3.06218
3.97943 -0.207908 3.06218
4.0795398 -1.04541 3.0999999
4.1027699 -0.16813 3.0999999
4.2249599 -0.137959 3.0999999
3.9840901 -0.146336 3.06218
4.0989699 -1.07609 3.0999999
4.2125101 -0.98145902 3.06218
4.1149902 -0.81170201 3.0999999
4.02457 -0.854568 3.06218
4.2169399 -0.198357 3.06218
4.24125 -0.79163301 3.06218
3.9916201 -0.182 3.0999999
4.0588598 -0.192128 3.06218
4.18332 -0.87707901 3.06218
4.20117 -0.80587202 3.06218
4.2642798 -0.59618098 3.06218
4.1040502 -0.441544 3.06218
4.1149902 -0.96250498 3.06218
4.0233998 -0.85410798 3.0999999
4.1584101 -0.62189001 3.06218
4.2388802 -0.54109001 3.0999999
3.9753001 -1.01903 3.06218
4.1431599 -1.06522 3.0999999
4.1470299 -0.92938203 3.06218
3.9781899 -0.22843701 3.0999999
4.1933699 -0.4032 3.0999999
4.1289201 -0.276474 3.0999999
4.06815 -0.175955 3.06218
4.0848999 -0.154704 3.0999999
4.2800002 -1.04302 3.0999999
4.0328002 -0.76447898 3.0999999
4.0771999 -0.43178901 3.0999999
4.1154399 -0.37156799 3.06218
4.2268801 -0.83780801 3.0999999
4.05584 -0.58506602 3.06218
4.0872998 -0.69636297 3.06218
4.0307202 -0.75927103 3.06218
4.0346999 -0.57742 3.06218
4.0830798 -1.02218 3.06218
4.1886802 -0.66331702 3.0999999
4.01618 -0.38554499 3.06218
4.0426698 -0.871535 3.0999999
4.1681399 -0.26683199 3.06218
4.0574398 -0.45096201 3.06218
4.02982 -0.91476899 3.06218
4.20574 -0.71988201 3.0999999
4.2786498 -0.40982601 3.06218
3.98281 -0.320685 3.06218
4.0869899 -0.50150901 3.06218
4.0315499 -0.96894401 3.06218
4.04774 -1.09688 3.0999999
3.9665401 -0.84497899 3.0744801
4.15063 -0.34204799 3.0999999
3.9736199 -0.538225 3.0999999
4.02912 -0.33857599 3.06218
4.2382998 -0.74133903 3.0999999
4.2320299 -1.01143 3.06218
4.2325902 -0.51853597 3.0999999
4.0169802 -0.48333099 3.06218
4.2625098 -1.02136 3.06218
4.0831699 -1.09062 3.06218
4.2585602 -0.47790501 3.0999999
3.9876399 -0.78457099 3.06218
4.0062499 -0.44271699 3.06218
4.1640201 -0.60377198 3.06218
3.98248 -0.52426702 3.0999999
4.07757 -0.41322601 3.0999999
4.1591802 -0.93664002 3.0999999
4.13379 -0.15392099 3.0999999
4.0696602 -0.52609199 3.06218
4.1698198 -0.76003098 3.06218
4.0766101 -1.09491 3.06218
4.0413899 -1.01238 3.0999999
4.0676398 -0.96415502 3.06218
4.1258001 -1.00319 3.06218
3.97914 -0.92909098 3.0999999
4.1136699 -0.67886001 3.0999999
4.0906 -0.99323797 3.06218
4.16117 -0.34017599 3.06218
4.0538101 -0.76181698 3.0999999
4.1726298 -0.57699299 3.0999999
4.0108099 -0.19036999 3.06218
3.9665401 -0.411437 3.07794
4.0431299 -0.261547 3.0999999
4.1220798 -0.412606 3.06218
4.08322 -0.63846701 3.0999999
3.99773 -0.17100599 3.0999999
4.1954799 -0.97865701 3.0999999
4.1807499 -0.269371 3.06218
4.05584 -0.58506602 3.06218
4.07025 -0.39513001 3.06218
4.13203 -0.40818 3.06218
4.0356998 -0.75448698 3.06218
4.2246699 -0.28357601 3.0999999
4.28616 -0.95290101 3.0999999
3.9665401 -0.88731998 3.0871601
4.23001 -0.29437599 3.06218
4.1750202 -0.34516901 3.0999999
4.1726298 -0.57699299 3.0999999
3.9665401 -0.26024601 3.0850899
4.0598998 -0.94634199 3.06218
4.2403202 -1.10839 3.06218
4.1216798 -1.08965 3.0999999
4.00175 -0.75369501 3.0999999
3.99155 -0.27685201 3.06218
4.0602198 -0.14592899 3.0999999
4.1346002 -0.32332 3.0999999
4.1121602 -0.71706897 3.06218
3.98718 -1.09995 3.06218
4.09829 -0.217977 3.0999999
4.0254598 -0.30377501 3.0999999
4.0343199 -0.314311 3.0999999
4.2543802 -0.66195703 3.0999999
4.1564298 -0.604653 3.0999999
4.2118101 -0.25964901 3.0999999
4.1064 -0.194701 3.06218
4.0107598 -0.398352 3.06218
4.1438999 -0.24390499 3.0999999
4.0510898 -0.606987 3.0999999
4.2746301 -0.90848398 3.06218
4.1135402 -0.919779 3.06218
4.2580299 -0.63237298 3.06218
4.1230202 -0.36747101 3.06218
4.1468401 -0.99138898 3.06218
4.1469102 -0.85389698 3.0999999
4.0610499 -0.65506703 3.06218
4.2473602 -0.60493797 3.06218
4.0334802 -0.80688202 3.0999999
3.99158 -0.45796299 3.06218
4.12116 -1.1179399 3.0999999
3.9665401 -0.93730599 3.0963399
4.2554698 -0.32374901 3.06218
4.2218699 -0.213557 3.0999999
4.2125101 -0.98145902 3.06218
4.2867298 -0.28273401 3.06218
4.1483498 -1.09548 3.06218
4.1943498 -1.02037 3.0999999
4.0146999 -0.82640201 3.0999999
4.0887499 -0.958776 3.0999999
4.0876799 -0.90148199 3.06218
4.0584898 -0.22831 3.06218
4.0714998 -0.15107501 3.0999999
4.1907001 -0.72984302 3.0999999
4.0226102 -0.29126999 3.0999999
4.0985899 -0.49318901 3.06218
4.0424099 -0.66068202 3.06218
4.2128601 -0.74076402 3.06218
4.0827398 -0.70347297 3.06218
4.1921401 -1.09436 3.0999999
4.2494402 -0.97955197 3.06218
4.02073 -0.815386 3.06218
3.9665401 -0.79419601 3.0910599
4.0755901 -0.81803602 3.0999999
4.0302801 -0.64594501 3.06218
4.0727201 -0.99988598 3.0999999
4.20151 -0.30422401 3.0999999
4.03687 -0.87462199 3.0999999
4.1292 -1.0752 3.0999999
4.1651602 -0.19935501 3.0999999
4.0831699 -1.09062 3.06218
4.2241402 -1.1090699 3.0999999
4.0682502 -0.14066599 3.06218
4.1933498 -0.734694 3.06218
4.1688399 -1.08134 3.0999999
4.0149202 -0.70554101 3.0999999
4.1802602 -0.99363202 3.06218
4.1276002 -0.99047703 3.0999999
4.0755901 -0.81803602 3.0999999
4.07798 -0.46858299 3.06218
4.27702 -0.74762797 3.0999999
4.1431999 -0.935233 3.0999999
4.18853 -0.41218799 3.06218
3.9665401 -0.156596 3.06862
4.1025801 -1.01675 3.06218
4.1346002 -0.32332 3.0999999
4.0676899 -0.83746302 3.06218
4.2854199 -0.86220998 3.0999999
4.2452502 -0.34110001 3.0999999
3.9665401 -1.06896 3.0748701
4.0397 -0.222565 3.06218
3.9665401 -0.31676799 3.0695
4.01266 -0.755826 3.0999999
4.0320101 -0.340675 3.06218
4.0714798 -1.01684 3.06218
4.0120301 -0.41426101 3.06218
4.1345301 -0.197147 3.0999999
4.2273598 -0.65911603 3.06218
3.98281 -0.320685 3.06218
4.0880299 -0.59532797 3.0999999
4.0362101 -0.31575999 3.0999999
4.2114201 -0.86775202 3.06218
4.1278801 -0.52679998 3.06218
4.20574 -0.71988201 3.0999999
3.9665401 -0.21233299 3.09093
4.2502499 -0.86418003 3.06218
4.2000799 -0.16574199 3.0999999
4.1556201 -0.60616899 3.06218
4.1210799 -0.406524 3.0999999
4.2673101 -0.79787302 3.0999999
4.0747399 -0.462277 3.0999999
4.1669998 -0.71621197 3.06218
3.9830101 -0.93967801 3.06218
4.0487399 -0.84345597 3.06218
4.2054 -1.01098 3.0999999
4.2799702 -0.81795001 3.06218
4.2282901 -0.980838 3.0999999
4.1997199 -0.679645 3.0999999
4.0532999 -0.474686 3.0999999
4.1080899 -0.74219799 3.06218
4.0500202 -0.78382897 3.06218
4.02457 -0.854568 3.06218
4.2256198 -1.02994 3.06218
4.0071101 -0.80122298 3.0999999
4.1801901 -1.07052 3.0999999
4.1163802 -1.09536 3.06218
4.1807499 -0.269371 3.06218
4.0760398 -1.09166 3.06218
3.9665401 -0.96992898 3.0638499
4.1596098 -0.51518703 3.0999999
4.2062702 -0.53690797 3.06218
4.1707902 -0.56061703 3.06218
4.25595 -0.74838901 3.06218
4.1271701 -0.68242002 3.06218
4.1157498 -0.84248799 3.0999999
4.17905 -0.283654 3.06218
4.1627002 -1.08074 3.06218
4.2674198 -0.74330699 3.0999999
