# .PCD v0.7 - Point Cloud Data file format
VERSION 0.7
FIELDS x y z
SIZE 4 4 4
TYPE F F F
COUNT 1 1 1
WIDTH 1401
HEIGHT 1
VIEWPOINT 0 0 0 1 0 0 0
POINTS 1401
DATA ascii
-3.5343599 -1.90444 -8.3245098e-08
-3.6144199 -1.99972 -8.7409703e-08
-3.49189 -1.2737401 -5.5676299e-08
-3.07601 -2.0739999 -9.0656698e-08
-3.2973599 -2.10906 -9.2189197e-08
-3.2695 -1.27201 -5.5600701e-08
-3.6098199 -1.9031399 -8.3188098e-08
-3.3275399 -2.12674 -9.2962097e-08
-2.8659 -1.34745 -5.88986e-08
-3.0620501 -1.21233 -5.2992299e-08
-3.6601901 -1.93063 -8.4389598e-08
-2.9869599 -1.95924 -8.5640302e-08
-3.3833799 -1.8296 -7.9973702e-08
-3.57566 -1.22139 -5.3388099e-08
-3.5252099 -2.1001599 -9.1799997e-08
-3.3829701 -1.9121799 -8.3583203e-08
-3.3931201 -1.2835 -5.6103101e-08
-3.07937 -2.05671 -8.9900801e-08
-3.25789 -1.30673 -5.7118601e-08
-2.9758101 -1.22616 -5.3596501e-08
-3.0339601 -1.67329 -7.3141301e-08
-3.4227901 -1.59346 -6.9651797e-08
-3.58745 -1.93797 -8.4710599e-08
-3.41434 -1.20945 -5.2866302e-08
-3.6010799 -1.4522099 -6.3477401e-08
-3.53756 -2.1135499 -9.2385299e-08
-3.2980101 -1.8200001 -7.9554098e-08
-3.1461599 -1.70626 -7.4582402e-08
-3.40288 -1.44901 -6.3337701e-08
-2.8477099 -1.18766 -5.1913901e-08
-2.8522899 -1.1714799 -5.1206499e-08
-2.91717 -1.2279201 -5.36734e-08
-2.9672201 -1.67414 -7.3178299e-08
-2.7988901 -1.41811 -6.1987002e-08
-3.3487899 -2.0616801 -9.0118199e-08
-3.0625401 -2.0474701 -8.9496801e-08
-2.7985401 -1.42773 -6.2407402e-08
-3.2335401 -1.8965501 -8.29002e-08
-3.40485 -1.59526 -6.9730497e-08
-3.6457 -1.83953 -8.0407901e-08
-3.5160699 -1.76494 -7.7147199e-08
-2.82304 -1.38589 -6.05786e-08
-3.7070799 -1.62622 -7.1083697e-08
-3.5959599 -1.75805 -7.6846199e-08
-3.3520801 -1.43838 -6.2873099e-08
-2.9769399 -1.27941 -5.5924101e-08
-3.1691699 -2.04917 -8.9571103e-08
-2.8501 -2.0111699 -8.7910401e-08
-3.2841799 -1.2649699 -5.5292901e-08
-2.8838799 -1.83136 -8.0050398e-08
-3.25104 -1.52125 -6.6495097e-08
-3.4811699 -1.92624 -8.4197801e-08
-3.7027299 -1.99132 -8.7042601e-08
-3.15868 -1.7235301 -7.5337297e-08
-3.36765 -2.0074301 -8.7746798e-08
-3.06477 -2.0617099 -9.0119599e-08
-3.2706201 -1.32119 -5.77507e-08
-3.6756599 -1.6148601 -7.0587298e-08
-2.9468801 -1.66001 -7.2560802e-08
-3.35639 -1.71018 -7.47537e-08
-3.2755401 -2.0729201 -9.0609397e-08
-3.11431 -1.85094 -8.0906403e-08
-3.30109 -2.04193 -8.9254797e-08
-2.8450699 -2.0476601 -8.9505498e-08
-3.68401 -1.69507 -7.40933e-08
-3.5683999 -1.57687 -6.8926497e-08
-2.8764 -2.0499599 -8.9605599e-08
-3.38678 -1.5765899 -6.8914197e-08
-3.3412199 -1.5622801 -6.82886e-08
-3.40925 -1.13799 -4.9742699e-08
-3.14465 -1.98691 -8.6849901e-08
-2.9089999 -1.98943 -8.6960199e-08
-2.9818599 -2.1208999 -9.27066e-08
-3.4458699 -1.56086 -6.8226598e-08
-3.4646299 -1.56357 -6.8345201e-08
-3.3022101 -1.3136899 -5.7422799e-08
-3.70032 -1.2704901 -5.5534301e-08
-3.35094 -1.56973 -6.8614497e-08
-3.40569 -1.36527 -5.9677298e-08
-3.6163099 -1.89959 -8.30331e-08
-3.7070799 -1.62622 -7.1083697e-08
-3.2822399 -1.64966 -7.21083e-08
-2.8831799 -2.0513 -8.9664503e-08
-2.9265299 -1.25473 -5.48457e-08
-3.43185 -1.8695 -8.17179e-08
-3.65539 -1.5233999 -6.6589301e-08
-3.1531799 -2.0344901 -8.8929802e-08
-3.34849 -1.96753 -8.6002899e-08
-2.8891799 -1.28474 -5.6157301e-08
-3.1432099 -1.13538 -4.96285e-08
-3.35498 -1.33356 -5.8291199e-08
-3.48647 -1.70486 -7.4520997e-08
-3.4212501 -1.52321 -6.6581201e-08
-3.6264501 -1.30285 -5.6948799e-08
-2.90415 -1.23525 -5.3994e-08
-3.30024 -1.93009 -8.4366398e-08
-2.9218099 -1.96579 -8.5926501e-08
-2.9769399 -1.27941 -5.5924101e-08
-3.2746301 -1.53499 -6.7096003e-08
-3.2130499 -1.6859601 -7.36948e-08
-2.8287699 -1.32419 -5.7881699e-08
-3.6408701 -2.0199599 -8.8294499e-08
-3.51542 -1.61457 -7.05746e-08
-2.92396 -1.97209 -8.6201901e-08
-3.34477 -1.43957 -6.2925203e-08
-3.70298 -1.3188699 -5.7648901e-08
-3.18911 -1.6559 -7.2381098e-08
-2.9288199 -1.8031 -7.8815503e-08
-3.6994901 -1.47878 -6.4639103e-08
-3.56515 -1.80566 -7.8927201e-08
-2.8933301 -1.53584 -6.71332e-08
-3.6224101 -1.95226 -8.5335202e-08
-2.9611599 -1.59706 -6.9809097e-08
-3.4621 -1.65883 -7.2509302e-08
-3.4510801 -1.16757 -5.1035801e-08
-3.40502 -1.53506 -6.7099002e-08
-3.1403799 -2.0711701 -9.0532801e-08
-2.9268401 -1.22585 -5.3583001e-08
-3.19367 -1.96944 -8.6086303e-08
-3.10607 -2.1078899 -9.2138201e-08
-3.42277 -2.0270901 -8.8606299e-08
-3.0827301 -1.89596 -8.2874301e-08
-3.55039 -1.8327399 -8.01111e-08
-3.3319099 -1.60774 -7.0275803e-08
-3.5457101 -1.26666 -5.5367099e-08
-3.6816299 -1.6210099 -7.0856103e-08
-3.6144199 -1.99972 -8.7409703e-08
-3.2338901 -1.80357 -7.8836003e-08
-3.2929599 -1.85549 -8.1105497e-08
-3.3492301 -1.9335999 -8.4519698e-08
-2.94068 -1.87334 -8.1885503e-08
-3.38076 -1.49244 -6.52363e-08
-3.68292 -1.94824 -8.51594e-08
-3.5779901 -1.34052 -5.8595301e-08
-3.64573 -1.28475 -5.61575e-08
-2.9581699 -1.76977 -7.73586e-08
-2.9611599 -1.59706 -6.9809097e-08
-3.03616 -1.21272 -5.3009099e-08
-3.23207 -2.00717 -8.77356e-08
-3.59427 -1.81827 -7.9478397e-08
-3.4003999 -1.8567801 -8.1161602e-08
-3.1553299 -1.99503 -8.7204697e-08
-3.60377 -1.48715 -6.5004997e-08
-3.6486199 -1.30554 -5.7066501e-08
-3.3935699 -1.38585 -6.0577001e-08
-3.25932 -1.2428 -5.4324001e-08
-3.52777 -1.73554 -7.5862197e-08
-3.0396399 -1.22729 -5.3646101e-08
-3.0278599 -2.0852399 -9.1148003e-08
-2.9195099 -1.1928 -5.21385e-08
-3.36516 -1.80484 -7.8891397e-08
-3.5302701 -2.1035099 -9.1946397e-08
-2.8534999 -1.47746 -6.4581499e-08
-2.94558 -1.68039 -7.3451602e-08
-3.1220601 -1.7561001 -7.6760898e-08
-3.08219 -2.13132 -9.3162001e-08
-3.6456201 -2.0009899 -8.7465096e-08
-3.6354599 -2.0334499 -8.8884001e-08
-3.70436 -1.8206 -7.9580197e-08
-3.58916 -1.85005 -8.0867501e-08
-3.00213 -1.6296 -7.1231497e-08
-2.93627 -1.17082 -5.11778e-08
-3.5596001 -1.55459 -6.7952598e-08
-3.52056 -1.62354 -7.09666e-08
-3.24283 -1.78792 -7.81517e-08
-2.8282399 -1.13402 -4.9569199e-08
-3.43981 -1.5786901 -6.9006099e-08
-2.9869499 -2.00247 -8.7529997e-08
-3.3505099 -2.06548 -9.0284303e-08
-3.3065901 -2.0734701 -9.06333e-08
-3.6944001 -1.3048199 -5.7034999e-08
-3.50318 -1.9701999 -8.6119201e-08
-3.61675 -1.87257 -8.1851702e-08
-3.3583 -2.0601101 -9.0049703e-08
-3.47508 -1.75564 -7.6740697e-08
-3.44329 -1.3231699 -5.7837301e-08
-2.95223 -2.0820401 -9.1007998e-08
-3.2003701 -1.75905 -7.6889599e-08
-3.49033 -1.9701 -8.6114902e-08
-3.70032 -1.2704901 -5.5534301e-08
-3.3583 -2.0601101 -9.0049703e-08
-3.47508 -1.75564 -7.6740697e-08
-3.27372 -1.8873301 -8.2497301e-08
-2.92026 -2.0125201 -8.7969298e-08
-2.98243 -1.89212 -8.27063e-08
-3.5787599 -2.0360301 -8.8996998e-08
-3.39133 -1.73277 -7.5741198e-08
-3.5903299 -1.41082 -6.1668203e-08
-3.3712599 -1.63474 -7.1456299e-08
-3.1004701 -2.0640299 -9.0220801e-08
-3.56445 -1.53716 -6.7191003e-08
-3.63955 -1.67393 -7.3169097e-08
-3.1600001 -1.8946 -8.2814999e-08
-3.27618 -1.29663 -5.66769e-08
-3.1954801 -1.57312 -6.8762702e-08
-3.7062299 -1.78177 -7.7883001e-08
-3.10358 -2.01352 -8.8012897e-08
-2.79426 -1.26791 -5.5421499e-08
-2.9837201 -1.8498 -8.08568e-08
-3.0052099 -1.2310899 -5.38123e-08
-3.6170001 -1.30304 -5.6957301e-08
-3.0724101 -1.86234 -8.1404799e-08
-3.09519 -2.0465901 -8.9458503e-08
-3.7062299 -1.78177 -7.7883001e-08
-3.7009599 -1.94995 -8.5234198e-08
-3.1209099 -2.11447 -9.2425601e-08
-3.33972 -1.61542 -7.0611399e-08
-3.2561901 -1.59817 -6.9857698e-08
-2.97963 -1.86166 -8.1375099e-08
-3.39573 -1.58898 -6.9455901e-08
-3.6040399 -1.75336 -7.66412e-08
-3.45874 -1.76614 -7.71998e-08
-3.15049 -2.1184299 -9.2598903e-08
-2.8192699 -1.29215 -5.6481301e-08
-3.08041 -1.78069 -7.7835601e-08
-2.91552 -1.75762 -7.6827398e-08
-3.6461501 -1.9478199 -8.5141203e-08
-3.1028399 -1.1866 -5.1867499e-08
-3.3406601 -1.98049 -8.6569202e-08
-3.6056199 -1.29588 -5.6644101e-08
-3.6294899 -1.54369 -6.74764e-08
-2.9821601 -1.1562099 -5.0539001e-08
-3.33231 -1.2320499 -5.3853999e-08
-3.1684201 -1.77697 -7.76731e-08
-3.5634699 -1.77705 -7.7676702e-08
-3.41114 -2.1143501 -9.24204e-08
-3.4342401 -1.2522399 -5.4736599e-08
-3.5416801 -1.7505 -7.6516102e-08
-2.9758101 -1.22616 -5.3596501e-08
-3.62836 -2.10286 -9.1918203e-08
-3.1187201 -2.0862 -9.1189698e-08
-3.4867899 -1.42769 -6.2405597e-08
-3.41553 -1.52728 -6.6758901e-08
-2.83761 -1.4559 -6.3638801e-08
-3.00792 -2.0413699 -8.9230397e-08
-3.61112 -1.6803499 -7.3449897e-08
-2.9869599 -1.95924 -8.5640302e-08
-3.4768 -1.62175 -7.0888198e-08
-2.8980701 -1.29195 -5.6472398e-08
-2.7728901 -1.36787 -5.9790999e-08
-3.3555501 -1.3413399 -5.8631201e-08
-3.6408701 -2.0199599 -8.8294499e-08
-3.2941899 -1.6394 -7.1659599e-08
-3.4907899 -1.3797899 -6.0311997e-08
-3.4002399 -1.1717401 -5.1218102e-08
-2.9583499 -2.1131499 -9.2368097e-08
-3.6218901 -1.90079 -8.3085602e-08
-3.5695601 -1.633 -7.1380001e-08
-3.3478401 -1.44929 -6.3350001e-08
-3.0050399 -1.72264 -7.5298402e-08
-3.13533 -2.0283501 -8.8661203e-08
-3.1320901 -2.1098101 -9.2222102e-08
-3.06565 -1.62356 -7.0967303e-08
-3.2095699 -1.60223 -7.0035298e-08
-3.4703701 -1.5772001 -6.8941198e-08
-3.2512701 -1.2484601 -5.4571199e-08
-3.08041 -1.78069 -7.7835601e-08
-2.9849501 -1.67925 -7.3401701e-08
-3.2329099 -1.6171499 -7.06873e-08
-3.6056199 -1.29588 -5.6644101e-08
-3.4837601 -1.57604 -6.88905e-08
-2.94068 -1.87334 -8.1885503e-08
-2.9642401 -1.56923 -6.8592797e-08
-3.0625401 -2.0474701 -8.9496801e-08
-3.3597 -1.88052 -8.21992e-08
-3.39799 -2.0308399 -8.8769902e-08
-3.4686201 -1.6474 -7.2009698e-08
-3.63047 -1.67661 -7.32865e-08
-3.2934599 -1.62774 -7.1150197e-08
-3.19964 -1.58147 -6.9127601e-08
-3.2265201 -1.31264 -5.7376699e-08
-3.38782 -1.71371 -7.4907902e-08
-3.17576 -1.77405 -7.7545501e-08
-3.2856901 -2.00646 -8.7704599e-08
-3.1767299 -1.23149 -5.3829901e-08
-3.5394599 -1.50682 -6.5864697e-08
-3.4394901 -1.71292 -7.4873597e-08
-3.2089601 -1.53579 -6.7130799e-08
-3.11589 -1.60554 -7.0179603e-08
-3.5752101 -1.6546299 -7.2325697e-08
-3.4792399 -1.21953 -5.3306799e-08
-3.18046 -2.0631299 -9.0181402e-08
-3.0895801 -1.8779401 -8.20867e-08
-2.87395 -1.80607 -7.8945099e-08
-3.3447399 -1.37755 -6.02139e-08
-3.2774 -1.25727 -5.4956701e-08
-3.63047 -1.67661 -7.32865e-08
-2.9558401 -1.21367 -5.3050702e-08
-3.3022101 -1.3136899 -5.7422799e-08
-3.0980999 -1.77554 -7.76107e-08
-3.5899301 -1.58499 -6.9281299e-08
-3.26069 -1.7688299 -7.7317502e-08
-3.2326601 -1.6961499 -7.4140601e-08
-3.62888 -1.57113 -6.8675803e-08
-3.34794 -2.08357 -9.1075101e-08
-3.48647 -1.70486 -7.4520997e-08
-3.6213901 -1.65095 -7.2164802e-08
-3.4439299 -1.29224 -5.64849e-08
-3.64379 -1.82295 -7.9683097e-08
-3.34183 -1.99589 -8.7242498e-08
-3.2762599 -1.54739 -6.7638098e-08
-2.9508801 -1.19365 -5.2175601e-08
-3.16518 -2.11672 -9.2523798e-08
-2.8603599 -1.20811 -5.28077e-08
-3.1500001 -2.0845201 -9.1116299e-08
-3.1939199 -1.57257 -6.87387e-08
-3.3171401 -1.17891 -5.1531099e-08
-3.0860801 -1.14712 -5.0141999e-08
-3.4690499 -1.43472 -6.2712999e-08
-3.2356999 -2.0648899 -9.0258297e-08
-2.85429 -1.1645499 -5.0903498e-08
-2.9184301 -1.9098099 -8.3479499e-08
-3.6893301 -1.30651 -5.7108799e-08
-2.9881201 -1.85298 -8.0995498e-08
-2.96732 -1.79286 -7.8367599e-08
-3.19491 -1.97664 -8.6400803e-08
-3.5602 -1.3923301 -6.0860003e-08
-3.61657 -1.82065 -7.95822e-08
-3.4098699 -1.68938 -7.3844497e-08
-3.3410299 -1.94464 -8.5002e-08
-3.1187201 -2.0862 -9.1189698e-08
-3.4997799 -1.53221 -6.6974501e-08
-3.3905101 -1.32224 -5.7796601e-08
-3.7046199 -1.40732 -6.1515301e-08
-3.46347 -2.00261 -8.7536002e-08
-3.48891 -1.4194 -6.2043597e-08
-3.2572 -1.18655 -5.18652e-08
-3.2813499 -1.88063 -8.2204402e-08
-3.3410299 -1.94464 -8.5002e-08
-3.64501 -2.10941 -9.2204601e-08
-3.46033 -1.7041399 -7.4489698e-08
-3.6986499 -2.0178499 -8.8202398e-08
-3.58249 -2.0797501 -9.0908102e-08
-3.19491 -1.97664 -8.6400803e-08
-3.0064399 -1.78784 -7.8148503e-08
-3.15868 -1.7235301 -7.5337297e-08
-2.9830599 -1.9959199 -8.7243698e-08
-2.8936501 -1.52525 -6.6670303e-08
-3.3653901 -1.49016 -6.5136497e-08
-3.23946 -1.9326 -8.4476e-08
-3.39327 -1.88448 -8.2372601e-08
-3.2397101 -1.5880001 -6.9413097e-08
-3.4766099 -1.98721 -8.6862897e-08
-3.1432099 -1.13538 -4.96285e-08
-3.34413 -1.75151 -7.6560497e-08
-2.90501 -1.50392 -6.5737801e-08
-3.50385 -1.61448 -7.0570501e-08
-3.4867899 -1.42769 -6.2405597e-08
-3.3829701 -1.9121799 -8.3583203e-08
-2.8896599 -1.19171 -5.2090599e-08
-3.30163 -1.57842 -6.8994296e-08
-3.48931 -1.78348 -7.7957601e-08
-2.90518 -1.95871 -8.5617103e-08
-2.87956 -1.82416 -7.9735699e-08
-3.2161901 -1.83375 -8.0154898e-08
-3.26228 -1.87422 -8.19241e-08
-2.9741001 -2.0771301 -9.07933e-08
-3.26142 -1.45609 -6.3647001e-08
-3.57212 -1.91449 -8.3684199e-08
-3.70241 -1.52777 -6.6780302e-08
-2.8522899 -1.1714799 -5.1206499e-08
-2.9821 -1.76666 -7.7222403e-08
-3.4487901 -1.58814 -6.9419102e-08
-3.3778801 -1.6176701 -7.0710001e-08
-3.2918701 -1.97571 -8.6360302e-08
-2.89713 -1.94662 -8.5088701e-08
-3.2762599 -1.54739 -6.7638098e-08
-2.80162 -1.31712 -5.7572599e-08
-2.9830599 -1.9959199 -8.7243698e-08
-3.55039 -1.8327399 -8.01111e-08
-3.65064 -1.82846 -7.9923701e-08
-3.1289201 -1.8849699 -8.2393903e-08
-3.02105 -2.0327201 -8.8852097e-08
-3.62888 -1.57113 -6.8675803e-08
-3.6365299 -1.96007 -8.5676803e-08
-3.68507 -1.92792 -8.4271399e-08
-3.5950401 -1.4756 -6.45e-08
-3.2262399 -1.25482 -5.4849501e-08
-3.02302 -2.11145 -9.2293398e-08
-3.1555901 -1.88384 -8.23443e-08
-3.5394599 -1.50682 -6.5864697e-08
-3.4325099 -1.39363 -6.0917102e-08
-3.2478099 -1.9525 -8.5345697e-08
-3.5314801 -1.29273 -5.6506401e-08
-3.61888 -1.72419 -7.5366202e-08
-3.5451601 -1.31934 -5.7669801e-08
-3.56354 -1.40802 -6.1546103e-08
-3.29703 -2.0529301 -8.9735501e-08
-3.2367799 -1.71323 -7.4886799e-08
-3.6563301 -1.62089 -7.0850902e-08
-2.9288199 -1.8031 -7.8815503e-08
-3.5766399 -2.0845001 -9.1115602e-08
-3.2411699 -1.74773 -7.6395096e-08
-3.66834 -1.27387 -5.5682001e-08
-2.9439099 -1.67112 -7.3046202e-08
-3.50105 -1.52918 -6.6841899e-08
-3.3771601 -1.46928 -6.4223698e-08
-3.66048 -1.59167 -6.9573296e-08
-3.24472 -1.84749 -8.0755797e-08
-3.3445001 -1.3777699 -6.0223698e-08
-3.1496999 -1.22068 -5.3357201e-08
-3.39133 -1.73277 -7.5741198e-08
-3.0668001 -1.80004 -7.8681701e-08
-3.2978499 -1.8058701 -7.8936601e-08
-3.62695 -1.88745 -8.2502503e-08
-3.14465 -1.98691 -8.6849901e-08
-3.3680899 -1.7421401 -7.6150499e-08
-3.2454801 -1.92857 -8.42996e-08
-3.39397 -1.3534 -5.9158399e-08
-3.3053501 -1.84553 -8.0669999e-08
-3.30163 -1.57842 -6.8994296e-08
-2.8966701 -1.4528 -6.35034e-08
-3.3617401 -1.495 -6.5347898e-08
-3.29182 -1.6579601 -7.2471302e-08
-2.9219501 -1.27105 -5.55589e-08
-2.8378401 -1.30041 -5.6842001e-08
-2.7211399 -1.18808 -5.19323e-08
-3.69226 -1.69728 -7.4189899e-08
-3.1054399 -1.61586 -7.0630698e-08
-3.29229 -1.69217 -7.3966604e-08
-3.1919701 -1.63557 -7.1492501e-08
-3.4539001 -1.68484 -7.3646099e-08
-3.3682401 -1.25878 -5.50226e-08
-3.47508 -1.75564 -7.6740697e-08
-3.1104701 -1.6433901 -7.1834201e-08
-3.6370201 -2.1020501 -9.1882598e-08
-2.95013 -1.29277 -5.6508199e-08
-3.4311299 -1.44625 -6.3216902e-08
-3.2748799 -1.54684 -6.7613897e-08
-3.2393 -1.89709 -8.2923599e-08
-3.2925701 -1.38524 -6.0550398e-08
-2.85589 -1.88898 -8.2569201e-08
-3.0558801 -2.0903399 -9.1370701e-08
-3.3682401 -1.25878 -5.50226e-08
-3.55969 -1.32895 -5.80897e-08
-3.7060599 -1.29997 -5.6822898e-08
-3.4175401 -1.54633 -6.75916e-08
-3.6294899 -1.54369 -6.74764e-08
-3.3922701 -1.8163199 -7.9393303e-08
-2.8463199 -1.8769 -8.2040998e-08
-3.47682 -1.1723599 -5.1244999e-08
-2.8896599 -1.19171 -5.2090599e-08
-3.4003999 -1.8567801 -8.1161602e-08
-3.44104 -1.24316 -5.4339999e-08
-3.2748599 -1.69039 -7.3888799e-08
-3.3645599 -1.13427 -4.9580301e-08
-3.61096 -1.5355901 -6.7122301e-08
-3.0723801 -1.75656 -7.6781099e-08
-3.3796201 -1.65289 -7.2249499e-08
-3.6052599 -1.44163 -6.3014902e-08
-3.1967001 -1.26621 -5.5347499e-08
-3.0574 -1.9694901 -8.6088399e-08
-3.57761 -1.32322 -5.7839099e-08
-3.2716601 -1.22393 -5.3499399e-08
-3.3409901 -1.23962 -5.4185101e-08
-2.87535 -1.40988 -6.1627397e-08
-3.3259699 -2.11254 -9.2341402e-08
-3.00596 -1.92892 -8.4314898e-08
-3.3645599 -1.13427 -4.9580301e-08
-3.5399799 -2.11953 -9.26468e-08
-3.59675 -1.32481 -5.79087e-08
-3.6993599 -1.5165 -6.6287697e-08
-3.1496999 -1.22068 -5.3357201e-08
-3.3364601 -1.9941 -8.7163897e-08
-3.5488901 -1.42637 -6.2348199e-08
-3.16503 -1.1891201 -5.1977601e-08
-2.94854 -1.25103 -5.4683799e-08
-3.70436 -1.8206 -7.9580197e-08
-3.55972 -1.18543 -5.18165e-08
-3.11871 -1.83096 -8.0032997e-08
-3.5308299 -1.38052 -6.0344e-08
-3.2748599 -1.69039 -7.3888799e-08
-3.57761 -1.32322 -5.7839099e-08
-3.5489199 -1.97627 -8.6384603e-08
-3.35726 -1.7226501 -7.52988e-08
-3.3151901 -1.41939 -6.2043e-08
-2.9565201 -1.22135 -5.3386501e-08
-3.69923 -1.6966799 -7.4163403e-08
-3.2583399 -1.57137 -6.8686198e-08
-3.68401 -1.69507 -7.40933e-08
-3.2423501 -1.83894 -8.0381902e-08
-3.63873 -1.81426 -7.9303e-08
-3.2316599 -1.77834 -7.7732899e-08
-3.57388 -1.2790101 -5.59066e-08
-3.4709001 -1.8014899 -7.8744698e-08
-3.4130599 -1.77713 -7.7679999e-08
-3.4902999 -1.20723 -5.2769401e-08
-3.04284 -1.61771 -7.07117e-08
-3.2376399 -2.10484 -9.2004697e-08
-3.2162299 -1.68524 -7.36635e-08
-3.4541099 -2.0615499 -9.01126e-08
-3.44625 -1.86528 -8.1533102e-08
-2.9576099 -2.0181601 -8.82157e-08
-3.4695101 -1.80932 -7.90873e-08
-3.62992 -1.96717 -8.5986898e-08
-2.86678 -1.20314 -5.2590501e-08
-2.9165599 -1.8035901 -7.8836599e-08
-3.3408 -1.71152 -7.48121e-08
-3.3777101 -1.5197099 -6.6428001e-08
-3.09165 -2.00366 -8.7581803e-08
-3.28794 -1.83851 -8.0363002e-08
-3.58551 -1.5086401 -6.5944199e-08
-3.1571 -1.9579999 -8.5586301e-08
-3.0436599 -1.96992 -8.61072e-08
-2.9086499 -1.85514 -8.1090199e-08
-2.7837701 -2.0746 -9.0683002e-08
-3.20241 -1.21594 -5.3150099e-08
-3.5559299 -1.64476 -7.1894199e-08
-3.4645801 -1.20601 -5.2715802e-08
-3.4724801 -1.43185 -6.2587702e-08
-2.9064 -1.18328 -5.1722498e-08
-3.47682 -1.72518 -7.5409297e-08
-3.6085 -2.0527101 -8.9725901e-08
-3.0871301 -1.1925 -5.2125198e-08
-3.6845601 -1.82429 -7.9741802e-08
-3.0004201 -1.9003201 -8.3064698e-08
-3.3187201 -1.77431 -7.7556997e-08
-3.48524 -1.75122 -7.6547501e-08
-3.2262101 -1.90412 -8.32311e-08
-3.5766301 -1.79892 -7.8632397e-08
-2.8184199 -1.44663 -6.3233699e-08
-3.22616 -1.91538 -8.3723201e-08
-3.6514399 -1.27464 -5.5715901e-08
-2.9609699 -2.1235099 -9.2820699e-08
-3.2697001 -2.0938301 -9.1523397e-08
-3.60906 -2.1177399 -9.2568399e-08
-2.8765299 -1.87032 -8.1753498e-08
-3.5088301 -1.56979 -6.8617098e-08
-3.31497 -1.23377 -5.3929401e-08
-3.66277 -1.4036601 -6.1355301e-08
-2.8689499 -1.13665 -4.96842e-08
-3.2237401 -1.24145 -5.4264898e-08
-3.5201499 -1.47622 -6.4527299e-08
-3.49189 -1.2737401 -5.5676299e-08
-2.79862 -1.39254 -6.0869397e-08
-3.3243201 -2.04333 -8.9316103e-08
-3.0720699 -1.89048 -8.2634799e-08
-2.79127 -2.0873699 -9.1240899e-08
-3.0119901 -1.62857 -7.1186399e-08
-2.87655 -2.1220601 -9.2757503e-08
-3.29211 -1.30366 -5.6984099e-08
-2.87464 -1.20749 -5.27804e-08
-3.22347 -1.15363 -5.0426301e-08
-3.6556001 -1.71687 -7.5046302e-08
-3.3243201 -2.04333 -8.9316103e-08
-3.5194499 -1.5264 -6.6720503e-08
-3.2367499 -2.0966201 -9.1645198e-08
-3.1320901 -2.1098101 -9.2222102e-08
-2.9799299 -2.10341 -9.1942198e-08
-3.6266699 -1.8224699 -7.9661902e-08
-3.5957999 -1.43699 -6.2812298e-08
-3.4412501 -1.54173 -6.7390701e-08
-3.67781 -1.31916 0.00168591
-2.85689 -1.18918 -5.1980098e-08
-3.5209301 -1.29948 -5.68016e-08
-3.40569 -1.36527 -5.9677298e-08
-2.9263 -1.8231 -7.96893e-08
-3.0722201 -1.24762 -5.4534599e-08
-3.4634399 -1.87922 -8.2142698e-08
-3.4342401 -1.2522399 -5.4736599e-08
-3.67959 -1.3610899 -5.9494798e-08
-2.90292 -1.24432 -5.4390298e-08
-3.2815299 -1.93766 -8.4697e-08
-2.9623301 -2.0599899 -9.0044402e-08
-3.41008 -1.5529799 -6.7882198e-08
-3.4177001 -1.91785 -8.3830997e-08
-3.23351 -1.54497 -6.7532e-08
-3.2049401 -1.85304 -8.0998198e-08
-2.8303699 -2.04509 -8.9392898e-08
-3.5771799 -1.69469 -7.4076603e-08
-3.5343599 -1.90444 -8.3245098e-08
-3.6665201 -1.53918 -6.7278997e-08
-2.8150799 -1.30077 -5.68579e-08
-3.3610001 -1.17987 -5.1573402e-08
-3.0377901 -2.01524 -8.80882e-08
-3.48599 -1.25674 -5.4933299e-08
-3.5613699 -1.84848 -8.0799097e-08
-2.9920299 -1.6689 -7.2949497e-08
-3.6747899 -1.44003 -6.2945098e-08
-3.2306299 -1.30478 -5.7033201e-08
-2.9098899 -2.13059 -9.3130403e-08
-3.2216599 -1.2467 -5.4494301e-08
-3.1352899 -1.24324 -5.4343399e-08
-3.2258301 -1.30774 -5.7162801e-08
-3.40925 -1.13799 -4.9742699e-08
-3.42535 -1.65352 -7.2276897e-08
-3.0236299 -2.0502999 -8.9620798e-08
-3.2705901 -1.87457 -8.1939397e-08
-3.2474501 -1.48999 -6.51291e-08
-3.48911 -1.42116 -6.2120201e-08
-2.8896599 -1.19171 -5.2090599e-08
-3.1921501 -1.72579 -7.5435899e-08
-3.0840099 -2.0704 -9.0499398e-08
-2.96451 -1.84842 -8.0796397e-08
-2.9979999 -2.0849199 -9.1133899e-08
-3.28104 -1.59071 -6.9531602e-08
-3.2624099 -1.96571 -8.5922998e-08
-3.43153 -1.77238 -7.7472301e-08
-3.2162299 -1.68524 -7.36635e-08
-3.2769799 -1.95472 -8.54428e-08
-3.2648201 -1.4524699 -6.3488898e-08
-3.38357 -1.82372 -7.97166e-08
-3.4186599 -1.77903 -7.7762998e-08
-3.1373899 -1.20234 -5.25554e-08
-3.36623 -1.39083 -6.0794498e-08
-3.16552 -1.97328 -8.6254197e-08
-3.3060999 -1.24435 -5.4392e-08
-3.7079799 -1.64877 -7.2069597e-08
-3.2572 -1.74457 -7.6256697e-08
-3.4072399 -1.7833101 -7.7950197e-08
-2.9133699 -1.51536 -6.6237902e-08
-3.71082 -1.2672499 -5.53927e-08
-2.92396 -1.97209 -8.6201901e-08
-3.46314 -1.13448 -4.95892e-08
-3.16079 -2.13185 -9.31852e-08
-3.2396901 -1.59315 -6.9638403e-08
-3.3452401 -1.93909 -8.4759698e-08
-3.5478899 -1.34001 -5.8573399e-08
-3.69995 -2.11955 -9.2647802e-08
-3.0838301 -1.25275 -5.4759099e-08
-3.4660101 -1.65388 -7.2292799e-08
-3.42454 -1.64508 -7.1908097e-08
-3.0833499 -2.0184801 -8.8229697e-08
-2.9092 -1.31467 -5.7465702e-08
-3.1073301 -1.83732 -8.0311104e-08
-3.1060901 -2.10467 -9.19974e-08
-3.61449 -1.70644 -7.4590197e-08
-3.36765 -2.0074301 -8.7746798e-08
-3.09514 -1.80571 -7.8929503e-08
-3.27297 -1.86418 -8.1485197e-08
-3.4727299 -1.31655 -5.7547599e-08
-2.7434599 -1.23611 -5.4031698e-08
-3.5629301 -1.71104 -7.4791103e-08
-3.2265201 -1.31264 -5.7376699e-08
-3.2162299 -1.68524 -7.36635e-08
-3.2202401 -1.32415 -5.7880001e-08
-3.1674399 -1.7589 -7.6883403e-08
-3.1767299 -1.23149 -5.3829901e-08
-3.4878199 -1.77402 -7.75443e-08
-3.0413799 -1.20584 -5.2708401e-08
-3.1586699 -1.73094 -7.5661298e-08
-2.9512 -1.64721 -7.20011e-08
-3.59073 -2.0276301 -8.8629697e-08
-3.2397399 -1.7931401 -7.8379998e-08
-3.11431 -1.18004 -5.1580901e-08
-3.13555 -1.8593 -8.12718e-08
-3.2695 -1.27201 -5.5600701e-08
-3.3680899 -1.7421401 -7.6150499e-08
-3.0827301 -1.89596 -8.2874301e-08
-3.2511101 -1.65618 -7.2393497e-08
-3.08041 -1.78069 -7.7835601e-08
-3.4832301 -1.24044 -5.4220902e-08
-3.5701799 -1.92261 -8.4039101e-08
-3.2397101 -1.5880001 -6.9413097e-08
-3.3854401 -1.79966 -7.8664897e-08
-3.45874 -1.76614 -7.71998e-08
-2.9428999 -1.6183701 -7.0740498e-08
-3.3891201 -2.09692 -9.16584e-08
-3.61343 -1.33286 -5.8260799e-08
-3.42454 -1.64508 -7.1908097e-08
-3.6496601 -1.9504 -8.5253802e-08
-3.2286 -2.03631 -8.9009298e-08
-3.53971 -1.25032 -5.4652599e-08
-3.12802 -1.18222 -5.16761e-08
-3.31389 -1.37521 -6.0111901e-08
-3.6882701 -1.6963201 -7.4147898e-08
-3.3391299 -1.30273 -5.6943499e-08
-3.6858499 -1.26626 -5.53493e-08
-3.3773201 -1.94119 -8.4851301e-08
-2.9458799 -1.24173 -5.4277301e-08
-2.84835 -2.0745299 -9.0679698e-08
-2.9184301 -1.9098099 -8.3479499e-08
-2.9642301 -2.0468199 -8.94686e-08
-2.93186 -1.59233 -6.96025e-08
-3.44227 -2.0027201 -8.7540897e-08
-3.4370699 -1.34931 -5.8979801e-08
-3.2060001 -2.0532701 -8.9750401e-08
-3.4039299 -1.2302901 -5.37772e-08
-3.5798099 -1.57671 -6.8919597e-08
-3.7027299 -1.99132 -8.7042601e-08
-2.76581 -1.3185199 -5.7633901e-08
-2.9830599 -1.9959199 -8.7243698e-08
-2.9642301 -2.0468199 -8.94686e-08
-3.4256899 -1.56022 -6.8198901e-08
-3.08409 -1.84505 -8.0648803e-08
-3.6532099 -1.72623 -7.5455397e-08
-3.6852801 -1.31936 0.0049037999
-3.1524301 -2.1093199 -9.22007e-08
-3.6989501 -1.9773999 -8.6434099e-08
-3.68698 -1.35721 -5.9325099e-08
-3.18449 -1.8435 -8.0581401e-08
-3.6605699 -1.82374 -7.9717303e-08
-3.6191199 -1.77228 -7.7468002e-08
-3.0138199 -1.91748 -8.3815102e-08
-3.0244601 -2.0116899 -8.7933103e-08
-3.4347601 -1.63088 -7.1287197e-08
-3.5271499 -1.25998 -5.5075201e-08
-3.6294899 -1.54369 -6.74764e-08
-3.3401501 -1.58439 -6.92554e-08
-3.4154501 -1.6912301 -7.39252e-08
-3.3754799 -1.26981 -5.5504501e-08
-3.5422699 -1.29413 -5.6567899e-08
-3.55687 -1.39811 -6.1112701e-08
-3.4258699 -1.8444901 -8.0624702e-08
-3.44227 -2.0027201 -8.7540897e-08
-3.1942799 -1.81029 -7.9129698e-08
-2.7878499 -1.23235 -5.38672e-08
-2.8704 -1.8363 -8.0266602e-08
-3.52056 -1.62354 -7.09666e-08
-2.78192 -2.1271801 -9.2980997e-08
-3.03144 -1.7617199 -7.7006398e-08
-2.8547399 -1.23815 -5.4120999e-08
-3.2309501 -1.75885 -7.6880902e-08
-2.93051 -2.1098499 -9.2223502e-08
-3.5450499 -1.90503 -8.3270798e-08
-3.4275701 -2.1206701 -9.2696702e-08
-2.8378401 -1.30041 -5.6842001e-08
-3.61343 -1.33286 -5.8260799e-08
-2.90872 -1.77382 -7.7535297e-08
-2.8180799 -2.0579 -8.9952998e-08
-2.90165 -1.27149 -5.55779e-08
-3.5634699 -1.77705 -7.7676702e-08
-3.0339401 -2.0778501 -9.0824798e-08
-3.23984 -1.68999 -7.3871e-08
-3.1579299 -1.24703 -5.4508799e-08
-3.39133 -1.73277 -7.5741198e-08
-3.02072 -1.74264 -7.6172498e-08
-2.8949699 -1.99608 -8.7250598e-08
-3.16503 -1.1891201 -5.1977601e-08
-3.3148899 -1.69627 -7.4145802e-08
-2.9969201 -1.96855 -8.6047301e-08
-3.0457499 -2.029 -8.8689703e-08
-3.1317599 -1.5955499 -6.9743102e-08
-3.44292 -1.57663 -6.8916101e-08
-3.12871 -1.93901 -8.4756202e-08
-3.35027 -1.68039 -7.3451602e-08
-3.5286901 -2.0215499 -8.8364203e-08
-3.10109 -2.0787001 -9.0862201e-08
-2.88521 -1.9666899 -8.5965901e-08
-3.13955 -2.1157801 -9.2483099e-08
-2.8022299 -1.20351 -5.2606602e-08
-3.67975 -1.85773 -8.1203098e-08
-3.4311299 -1.44625 -6.3216902e-08
-3.41342 -1.74253 -7.6167801e-08
-3.07934 -1.95358 -8.5392799e-08
-3.25073 -1.22122 -5.3380599e-08
-3.57761 -1.32322 -5.7839099e-08
-3.1519101 -1.62217 -7.0906701e-08
-3.2813499 -1.88063 -8.2204402e-08
-3.56111 -1.43081 -6.2542e-08
-3.3359599 -1.50439 -6.57584e-08
-3.5104699 -2.0067699 -8.77179e-08
-3.6775601 -1.70459 -7.4509302e-08
-3.6235199 -1.5781699 -6.8983603e-08
-2.8585801 -1.45832 -6.37447e-08
-3.48331 -1.36394 -5.9619097e-08
-3.38012 -1.34557 -5.8816202e-08
-2.7202699 -1.22015 -5.3333999e-08
-3.1438999 -1.7781399 -7.7724302e-08
-3.1919701 -1.63557 -7.1492501e-08
-3.3017099 -2.11321 -9.23703e-08
-3.2044799 -1.74257 -7.61694e-08
-3.2572 -1.18655 -5.18652e-08
-3.5883999 -1.68606 -7.3699503e-08
-3.09919 -2.0769601 -9.0785903e-08
-3.6428699 -2.0578899 -8.9952302e-08
-3.3512101 -1.1601501 -5.0711201e-08
-3.4641299 -1.38139 -6.0382099e-08
-3.6767299 -1.28553 -5.6191698e-08
-3.0787201 -1.24344 -5.4352e-08
-3.6462901 -1.8664401 -8.1583998e-08
-3.6693201 -1.79277 -7.8363698e-08
-3.30232 -2.1152999 -9.2461697e-08
-3.6598101 -1.49673 -6.54235e-08
-3.5685301 -1.34263 -5.86878e-08
-3.0438199 -1.94486 -8.50116e-08
-3.0834401 -1.95766 -8.5571301e-08
-3.40502 -1.53506 -6.7099002e-08
-3.25051 -1.81539 -7.9352297e-08
-3.43981 -1.5786901 -6.9006099e-08
-3.56001 -1.89949 -8.3028702e-08
-3.2634201 -1.84526 -8.0658197e-08
-3.62942 -1.35419 -5.9192899e-08
-2.7211399 -1.18808 -5.19323e-08
-3.3319099 -1.60774 -7.0275803e-08
-3.1895199 -1.88606 -8.2441602e-08
-3.55019 -1.36949 -5.9861698e-08
-3.6238401 -1.92073 -8.3956898e-08
-3.69802 -1.86833 -8.1666698e-08
-3.62184 -1.76951 -7.7347003e-08
-3.5868299 -1.44479 -6.3153003e-08
-3.33916 -1.97497 -8.6328001e-08
-2.91854 -2.13025 -9.3115403e-08
-3.61657 -1.82065 -7.95822e-08
-3.6224101 -1.95226 -8.5335202e-08
-3.5266199 -2.1315601 -9.3172702e-08
-2.9779301 -1.20026 -5.2464401e-08
-3.11168 -1.80548 -7.89193e-08
-2.7434599 -1.23611 -5.4031698e-08
-3.2216599 -1.2467 -5.4494301e-08
-3.3187201 -1.77431 -7.7556997e-08
-3.6487 -1.40499 -6.1413303e-08
-2.8180799 -2.0579 -8.9952998e-08
-3.0246401 -1.73946 -7.6033501e-08
-3.35812 -1.25065 -5.4667002e-08
-3.30481 -1.82287 -7.9679502e-08
-2.94312 -1.82964 -7.9975301e-08
-3.3909099 -1.95239 -8.53411e-08
-3.4172699 -1.75476 -7.67022e-08
-3.14782 -1.74006 -7.6059898e-08
-3.6027701 -1.55694 -6.8055499e-08
-3.3787501 -1.15365 -5.04273e-08
-3.69978 -2.10039 -9.18103e-08
-3.35726 -1.7226501 -7.52988e-08
-3.0330701 -1.92466 -8.41287e-08
-2.9586501 -1.93259 -8.4475502e-08
-3.70241 -1.52777 -6.6780302e-08
-3.4180701 -1.6119601 -7.0460203e-08
-3.6580701 -2.0645599 -9.0243901e-08
-3.4672401 -1.45049 -6.3402297e-08
-3.07127 -1.76657 -7.7218701e-08
-3.1789601 -1.80118 -7.8731397e-08
-2.9768901 -1.92378 -8.4090402e-08
-3.40307 -1.18857 -5.1953499e-08
-2.9690399 -1.95577 -8.5488701e-08
-3.54158 -2.1081901 -9.2150898e-08
-3.2090199 -1.92548 -8.4164498e-08
-3.6097901 -1.7261 -7.5449698e-08
-3.31548 -1.47054 -6.42789e-08
-3.67346 -1.69844 -7.4240397e-08
-3.0947101 -1.97665 -8.6401499e-08
-2.80165 -1.38236 -6.0424199e-08
-2.93839 -1.69486 -7.4084099e-08
-3.68401 -1.69507 -7.40933e-08
-3.42191 -1.2788399 -5.5899299e-08
-3.2716601 -1.22393 -5.3499399e-08
-2.9874001 -1.60384 -7.01056e-08
-3.5596001 -1.55459 -6.7952598e-08
-3.0497701 -1.19056 -5.2040701e-08
-2.87995 -2.0997901 -9.1783903e-08
-3.3132801 -1.79874 -7.8624602e-08
-3.5271499 -1.25998 -5.5075201e-08
-3.4117401 -1.50427 -6.5752999e-08
-3.4672401 -1.45049 -6.3402297e-08
-3.47069 -1.34621 -5.88443e-08
-2.9744301 -2.04245 -8.9277499e-08
-3.7083099 -1.29469 -5.6592398e-08
-3.3823199 -1.42554 -6.2311997e-08
-3.6638801 -1.92215 -8.4019298e-08
-3.5352399 -1.37058 -5.9909397e-08
-3.44625 -1.86528 -8.1533102e-08
-2.9308901 -2.00542 -8.7658997e-08
-3.4781699 -1.9054 -8.3286999e-08
-3.4116299 -1.6943099 -7.4059898e-08
-3.5906 -2.1286199 -9.3044299e-08
-3.2822399 -1.64966 -7.21083e-08
-3.26737 -1.8543299 -8.1054701e-08
-3.4086399 -1.7661099 -7.71985e-08
-2.8966701 -1.4528 -6.35034e-08
-3.2007101 -1.85449 -8.1061501e-08
-3.3327799 -1.85475 -8.1072898e-08
-3.34477 -1.43957 -6.2925203e-08
-3.51526 -2.01633 -8.8135998e-08
-3.6882 -2.0664599 -9.0327099e-08
-3.4222701 -2.00755 -8.7752099e-08
-3.4916 -1.72746 -7.5509199e-08
-3.48703 -1.96444 -8.5867697e-08
-3.37327 -1.42286 -6.21948e-08
-3.55212 -1.81134 -7.9175699e-08
-3.63938 -1.26808 0.00181258
-3.36026 -1.62002 -7.0812803e-08
-2.75302 -1.20437 -5.2644101e-08
-3.5111499 -2.0534 -8.9756199e-08
-3.5388601 -1.3559 -5.9267698e-08
-3.3266001 -2.1305301 -9.3127603e-08
-3.09813 -1.9980201 -8.7335501e-08
-3.5903201 -1.83476 -8.01993e-08
-3.3755801 -1.24208 -5.4292499e-08
-3.4388399 -1.6977201 -7.4208899e-08
-3.46787 -1.193 -5.21473e-08
-3.4002399 -1.1717401 -5.1218102e-08
-3.2161701 -1.27097 -5.55554e-08
-3.00596 -1.92892 -8.4314898e-08
-3.4856501 -1.33891 -5.8525199e-08
-2.9330499 -1.96833 -8.6037602e-08
-2.8184199 -1.44663 -6.3233699e-08
-3.6811399 -1.29282 -5.6510601e-08
-3.6547 -2.04668 -8.9462503e-08
-2.96334 -2.0264599 -8.8578801e-08
-3.3236599 -1.7517 -7.6568703e-08
-3.0403099 -1.8595001 -8.1280398e-08
-2.7242999 -1.22027 -5.33391e-08
-3.47736 -1.7568901 -7.6795203e-08
-3.6893301 -1.30651 -5.7108799e-08
-3.1170399 -1.8411601 -8.0478998e-08
-3.18922 -1.80643 -7.8961001e-08
-2.77823 -1.20478 -5.2662202e-08
-3.60009 -1.3798 -6.0312303e-08
-3.26882 -2.0984001 -9.1723201e-08
-3.4256899 -1.56022 -6.8198901e-08
-2.7783 -1.16599 -5.0966602e-08
-2.9734499 -1.71954 -7.5162902e-08
-2.8854101 -1.40548 -6.1435003e-08
-3.5098901 -2.1272099 -9.2982397e-08
-2.9869599 -1.95924 -8.5640302e-08
-3.44853 -1.881 -8.2220303e-08
-3.0202999 -1.81703 -7.9424098e-08
-2.9663601 -1.91609 -8.3754102e-08
-3.55969 -1.32895 -5.80897e-08
-3.0615499 -1.87122 -8.1793097e-08
-3.64131 -1.28258 -5.6062898e-08
-3.12205 -1.25503 -5.4858699e-08
-3.39762 -1.63992 -7.1682798e-08
-3.4854 -1.4298199 -6.2498799e-08
-3.5901501 -1.54389 -6.7484798e-08
-3.3240099 -1.77482 -7.7579003e-08
-3.67781 -1.31916 0.00168591
-3.6940899 -1.40176 -6.1272502e-08
-3.6746399 -1.3453 -5.88043e-08
-3.5297401 -1.58052 -6.9086099e-08
-3.6811399 -1.29282 -5.6510601e-08
-3.69523 -1.51034 -6.6018501e-08
-3.09514 -1.80571 -7.8929503e-08
-3.66734 -1.46442 -6.4011097e-08
-3.11854 -1.20881 -5.2838299e-08
-3.2946301 -2.0332799 -8.8876703e-08
-3.6224101 -1.95226 -8.5335202e-08
-2.9301 -1.74163 -7.6128302e-08
-3.3833799 -1.8296 -7.9973702e-08
-3.27618 -1.29663 -5.66769e-08
-3.2258301 -1.30774 -5.7162801e-08
-3.46597 -1.8790801 -8.2136303e-08
-3.29316 -1.36783 -5.97894e-08
-2.9307201 -1.87842 -8.2107803e-08
-3.15307 -1.26966 -5.5497999e-08
-3.30843 -1.74257 -7.6169499e-08
-3.4876599 -2.0037601 -8.7586599e-08
-2.9765999 -1.58172 -6.91388e-08
-3.5787599 -2.0360301 -8.8996998e-08
-3.66048 -1.59167 -6.9573296e-08
-3.5176799 -1.26715 -5.5388401e-08
-3.63923 -1.2912 0.0041821902
-3.5898499 -1.9658 -8.5926899e-08
-3.5585401 -1.83745 -8.0317001e-08
-3.5836999 -1.4677401 -6.4156502e-08
-3.44292 -1.57663 -6.8916101e-08
-3.26578 -1.20743 -5.2778098e-08
-3.3568201 -1.55366 -6.7912197e-08
-3.2366099 -1.87005 -8.1741597e-08
-3.4172699 -1.75476 -7.67022e-08
-3.3236599 -1.7517 -7.6568703e-08
-3.18362 -1.21681 -5.3188199e-08
-3.4037001 -1.5390199 -6.7272097e-08
-3.6598101 -1.49673 -6.54235e-08
-3.5778799 -1.48535 -6.4926098e-08
-3.5629301 -1.71104 -7.4791103e-08
-3.3390999 -1.6142401 -7.0560198e-08
-3.1026399 -1.74387 -7.62262e-08
-3.36026 -1.62002 -7.0812803e-08
-3.1912701 -1.76161 -7.70019e-08
-3.4247501 -1.26301 -5.5207199e-08
-3.65044 -1.69884 -7.4258203e-08
-3.18449 -1.8435 -8.0581401e-08
-3.25067 -1.32616 -5.7967899e-08
-3.3148899 -1.69627 -7.4145802e-08
-3.5109401 -1.91371 -8.36501e-08
-3.39749 -1.93217 -8.4457099e-08
-2.9583499 -2.1131499 -9.2368097e-08
-3.1763799 -2.06287 -9.0169998e-08
-3.6097901 -1.7261 -7.5449698e-08
-3.4907899 -1.3797899 -6.0311997e-08
-3.4646299 -1.56357 -6.8345201e-08
-2.90926 -1.298 -5.6737001e-08
-3.6178701 -1.8188699 -7.9504801e-08
-3.3666 -1.8722399 -8.1837698e-08
-3.09323 -1.59718 -6.9814298e-08
-2.8812799 -1.98069 -8.6578098e-08
-3.3793001 -1.58197 -6.9149401e-08
-3.2679501 -1.17707 -5.1450701e-08
-2.8228099 -1.29203 -5.6475901e-08
-3.6247399 -1.37044 -5.99034e-08
-3.2605901 -1.25905 -5.5034398e-08
-3.20293 -1.71769 -7.50818e-08
-3.5352399 -1.37058 -5.9909397e-08
-3.6601901 -1.93063 -8.4389598e-08
-3.1716399 -1.89059 -8.2639701e-08
-2.9391201 -1.9899 -8.6980698e-08
-2.9885001 -1.95802 -8.5587203e-08
-3.16868 -2.0652299 -9.0273403e-08
-3.24736 -1.38456 -6.05203e-08
-3.39744 -1.85238 -8.0969301e-08
-3.6532099 -1.72623 -7.5455397e-08
-3.5834899 -1.42264 -6.2184903e-08
-3.0339401 -2.0778501 -9.0824798e-08
-3.2869401 -1.68909 -7.3831998e-08
-3.5629301 -1.71104 -7.4791103e-08
-3.3013699 -1.71153 -7.4812498e-08
-2.9478099 -1.6013 -6.9994499e-08
-2.8022299 -1.20351 -5.2606602e-08
-3.69802 -1.86833 -8.1666698e-08
-3.6532099 -1.5131201 -6.6139897e-08
-3.3412199 -1.5622801 -6.82886e-08
-2.80354 -1.22462 -5.3529501e-08
-3.7104101 -1.31259 -5.7374699e-08
-3.4277699 -1.9545799 -8.5436497e-08
-3.3977399 -1.93663 -8.46522e-08
-3.01542 -1.19897 -5.2408399e-08
-3.4765 -1.65254 -7.2234201e-08
-3.4475601 -2.1057701 -9.2045497e-08
-3.48406 -1.68978 -7.3861997e-08
-3.3459101 -1.75589 -7.6751697e-08
-3.16693 -1.58819 -6.9421397e-08
-3.36589 -1.90845 -8.3420097e-08
-2.8192699 -1.29215 -5.6481301e-08
-3.2840199 -1.55062 -6.7779098e-08
-3.2095699 -1.60223 -7.0035298e-08
-3.08252 -2.0634999 -9.0197702e-08
-3.2630899 -1.45314 -6.3518399e-08
-3.01652 -1.18543 -5.1816102e-08
-3.2695 -1.27201 -5.5600701e-08
-3.53438 -1.78224 -7.7903302e-08
-3.39573 -1.58898 -6.9455901e-08
-3.08605 -1.63513 -7.1473103e-08
-3.2605901 -1.25905 -5.5034398e-08
-3.2823501 -1.99712 -8.7296101e-08
-3.5293801 -1.68707 -7.37436e-08
-3.2639101 -1.36659 -5.9735001e-08
-3.27918 -1.80292 -7.8807403e-08
-3.24703 -1.93937 -8.4771699e-08
-3.1961901 -1.70974 -7.4734601e-08
-3.44221 -1.42972 -6.24945e-08
-3.2561901 -1.59817 -6.9857698e-08
-3.6038401 -1.57291 -6.87536e-08
-2.9870901 -1.19212 -5.2108899e-08
-3.57566 -1.22139 -5.3388099e-08
-3.2258301 -1.88625 -8.24501e-08
-3.49335 -1.7593499 -7.6902801e-08
-3.70032 -1.2704901 -5.5534301e-08
-3.2386799 -2.0775499 -9.0811703e-08
-3.3526101 -1.31829 -5.7623701e-08
-3.57321 -1.21672 -5.3184099e-08
-2.9525001 -1.1793 -5.1548401e-08
-3.37379 -2.09003 -9.13573e-08
-3.6763899 -1.79278 -7.8364103e-08
-3.49016 -1.48655 -6.49786e-08
-3.14399 -1.7609 -7.6970899e-08
-3.29915 -1.80683 -7.8978601e-08
-3.3574901 -1.89882 -8.2999399e-08
-3.5627301 -1.42248 -6.2178202e-08
-3.5078499 -1.79854 -7.8616097e-08
-3.1013 -1.87734 -8.2060403e-08
-3.5116899 -1.65611 -7.2390201e-08
-2.9393599 -1.15564 -5.0514e-08
-3.06919 -1.70937 -7.47184e-08
-3.5752101 -1.6546299 -7.2325697e-08
-2.7925799 -1.30197 -5.6910501e-08
-2.9511199 -2.0438299 -8.9337703e-08
-3.0558801 -2.0903399 -9.1370701e-08
-3.50385 -1.61448 -7.0570501e-08
-3.3415999 -1.84317 -8.05667e-08
-3.59427 -1.81827 -7.9478397e-08
-3.4402201 -1.4457099 -6.3193298e-08
-3.2705901 -1.87457 -8.1939397e-08
-3.31497 -1.23377 -5.3929401e-08
-3.3504601 -1.83165 -8.0063401e-08
-3.6946399 -1.74213 -7.6150201e-08
-3.4228001 -1.74801 -7.6407296e-08
-3.5538099 -1.6432 -7.1825902e-08
-3.1818299 -1.19475 -5.22239e-08
-2.77811 -1.13564 -4.96401e-08
-2.9086499 -1.85514 -8.1090199e-08
-3.53511 -2.1313 -9.3161098e-08
-3.42435 -1.32242 -5.78043e-08
-3.19367 -1.96944 -8.6086303e-08
-2.8715401 -1.89636 -8.2891901e-08
-3.52472 -1.13589 -4.9650801e-08
-2.96334 -2.0264599 -8.8578801e-08
-3.3418701 -1.27256 -5.5624898e-08
-3.0954299 -1.73259 -7.5733297e-08
-3.32989 -1.35498 -5.9227499e-08
-3.63873 -1.81426 -7.9303e-08
-3.4467001 -1.57341 -6.8775201e-08
-3.5653 -2.0028601 -8.75471e-08
-3.5132301 -1.98963 -8.6968598e-08
-3.2452099 -1.5731601 -6.8764201e-08
-3.4491501 -1.2554801 -5.48782e-08
-2.91098 -1.49058 -6.5154602e-08
-2.89219 -1.97412 -8.6291003e-08
-3.62956 -1.8154401 -7.9354599e-08
-2.82254 -1.26844 -5.54449e-08
-3.6443501 -2.0810499 -9.0964697e-08
-3.38728 -1.85453 -8.1063398e-08
-2.7172799 -1.34111 -5.8621001e-08
-3.5883999 -1.68606 -7.3699503e-08
-3.37379 -2.09003 -9.13573e-08
-3.3777101 -1.5197099 -6.6428001e-08
-3.2697001 -2.0938301 -9.1523397e-08
-3.23368 -1.30114 -5.6873901e-08
-3.5688901 -2.0172701 -8.8176698e-08
-3.61305 -1.96215 -8.5767503e-08
-3.6960199 -2.0201399 -8.83025e-08
-3.29565 -1.18382 -5.1745999e-08
-2.77823 -1.20478 -5.2662202e-08
-3.4103301 -1.82268 -7.9670997e-08
-3.6442299 -1.9791501 -8.6510603e-08
-3.2262399 -1.25482 -5.4849501e-08
-3.02071 -1.67046 -7.3017603e-08
-3.54814 -1.19367 -5.2176699e-08
-3.3552301 -1.47368 -6.4416e-08
-3.22594 -1.8120199 -7.92053e-08
-3.6659801 -1.77833 -7.7732501e-08
-3.2620001 -1.29243 -5.6493398e-08
-3.20241 -1.21594 -5.3150099e-08
-2.9956501 -2.1185601 -9.2604502e-08
-3.1496999 -1.22068 -5.3357201e-08
-3.01542 -1.19897 -5.2408399e-08
-3.70329 -1.25156 -5.4707101e-08
-3.4039299 -1.2302901 -5.37772e-08
-3.23263 -1.56328 -6.8332398e-08
-3.33231 -1.2320499 -5.3853999e-08
-2.9301 -1.74163 -7.6128302e-08
-3.57497 -1.83076 -8.00243e-08
-3.39116 -1.58296 -6.9193e-08
-3.0969801 -1.61415 -7.0555899e-08
-3.3094101 -1.19218 -5.2111201e-08
-3.17047 -1.24028 -5.4213899e-08
-3.0942199 -1.72144 -7.5245801e-08
-3.58249 -2.0797501 -9.0908102e-08
-3.63006 -2.03475 -8.8940901e-08
-3.0724101 -1.86234 -8.1404799e-08
-3.2781799 -1.6299599 -7.1247101e-08
-3.63884 -1.3149199 0.010444
-3.4821801 -1.7563601 -7.6772402e-08
-3.6989 -1.64051 -7.1708399e-08
-3.2769799 -1.95472 -8.54428e-08
-3.07127 -1.76657 -7.7218701e-08
-3.35308 -1.19506 -5.2237102e-08
-3.0980999 -1.77554 -7.76107e-08
-3.4039099 -1.7357301 -7.5870297e-08
-3.68344 -2.0432301 -8.9311698e-08
-3.63047 -1.67661 -7.32865e-08
-2.9142599 -1.50395 -6.57393e-08
-3.31089 -1.88752 -8.2505302e-08
-3.0827301 -1.89596 -8.2874301e-08
-3.64379 -1.82295 -7.9683097e-08
-3.6150501 -1.641 -7.1729801e-08
-2.82304 -1.38589 -6.05786e-08
-3.4258699 -1.8444901 -8.0624702e-08
-3.1554301 -2.0246401 -8.8498901e-08
-2.7929101 -1.3049901 -5.7042499e-08
-3.2549 -1.50336 -6.5713401e-08
-3.15342 -1.6159 -7.0632503e-08
-2.8657501 -1.81264 -7.92325e-08
-3.1026399 -1.74387 -7.62262e-08
-3.62888 -1.57113 -6.8675803e-08
-3.6596601 -1.42284 -6.2193898e-08
-3.07903 -1.89864 -8.2991299e-08
-3.22752 -1.31973 -5.7686702e-08
-3.3891201 -2.09692 -9.16584e-08
-3.41675 -1.33685 -5.8434999e-08
-3.2388999 -1.8158799 -7.9373997e-08
-3.6756599 -1.6148601 -7.0587298e-08
-3.29703 -2.0529301 -8.9735501e-08
-3.33162 -1.73254 -7.5731002e-08
-3.0687201 -1.89912 -8.3012601e-08
-3.0648799 -1.9671 -8.5983999e-08
-3.13555 -1.8593 -8.12718e-08
-3.16412 -1.26835 -5.5440999e-08
-3.1438999 -1.7781399 -7.7724302e-08
-3.5506101 -1.39823 -6.1118001e-08
-3.01489 -1.69901 -7.42656e-08
-3.4514301 -1.8394901 -8.0405997e-08
-3.39749 -1.93217 -8.4457099e-08
-3.27527 -1.33675 -5.8430601e-08
-3.5486 -1.2151999 -5.31175e-08
-3.3787701 -2.0708699 -9.0519599e-08
-3.6328399 -1.40626 -6.1469102e-08
-3.0722301 -2.0387299 -8.9114998e-08
-3.2142701 -1.26182 -5.5155599e-08
-3.3533399 -1.40548 -6.1435003e-08
-3.3401501 -1.58439 -6.92554e-08
-3.16518 -2.11672 -9.2523798e-08
-2.9930999 -1.9397399 -8.47878e-08
-3.1556699 -1.21466 -5.3094102e-08
-2.8966701 -1.4528 -6.35034e-08
-3.25104 -1.52125 -6.6495097e-08
-3.2671499 -1.80979 -7.9107899e-08
-2.80532 -2.0769 -9.0783303e-08
-3.47508 -1.75564 -7.6740697e-08
-3.68222 -1.7947299 -7.8449297e-08
-3.43401 -1.1752 -5.1369199e-08
-2.8900199 -1.86858 -8.1677399e-08
-3.5217299 -1.58508 -6.9285498e-08
-3.16256 -1.59592 -6.9759302e-08
-3.59339 -2.0272901 -8.8614698e-08
-3.46594 -1.18311 -5.17148e-08
-3.63047 -1.67661 -7.32865e-08
-2.83534 -1.19688 -5.2316601e-08
-2.85429 -1.1645499 -5.0903498e-08
-3.2307701 -1.26943 -5.5488201e-08
-3.2200999 -1.61025 -7.0385497e-08
-3.0113001 -1.6993999 -7.4282397e-08
-3.4827299 -1.6646 -7.2761203e-08
-3.5492201 -1.9605401 -8.5697401e-08
-3.5170901 -1.28846 -5.6319902e-08
-3.22469 -2.0505099 -8.9629701e-08
-2.77302 -1.16479 -5.0914299e-08
-2.9660699 -2.0492401 -8.9574201e-08
-3.4869101 -1.86175 -8.1379198e-08
-3.5300701 -1.9546601 -8.544e-08
-2.98594 -2.0181201 -8.82142e-08
-2.8192699 -1.29215 -5.6481301e-08
-3.34622 -1.98351 -8.6701199e-08
-3.0687201 -1.89912 -8.3012601e-08
-3.34727 -1.18432 -5.17676e-08
-3.27371 -1.92641 -8.4205404e-08
-3.6054399 -1.75104 -7.6539798e-08
-3.6301799 -1.49093 -6.5169999e-08
-3.39082 -1.48683 -6.49908e-08
-3.5162599 -1.63147 -7.1313103e-08
-3.68009 -1.6703 -7.3010398e-08
-3.03144 -1.7617199 -7.7006398e-08
-3.0353899 -1.91766 -8.3822698e-08
-3.43922 -1.28633 -5.6226799e-08
-3.4458599 -2.1155801 -9.2473996e-08
-3.34217 -2.07304 -9.0614797e-08
-3.0009601 -2.0422201 -8.9267502e-08
-3.0272801 -2.0736599 -9.0641898e-08
-3.6177101 -1.38885 -6.0707897e-08
-3.64044 -1.76969 -7.7354798e-08
-3.30637 -1.53395 -6.70506e-08
-2.86092 -1.19765 -5.23506e-08
-3.5104699 -2.0067699 -8.77179e-08
-3.3791399 -1.2373 -5.4083401e-08
-3.5137701 -1.88524 -8.2405897e-08
-3.4450901 -1.5284801 -6.6811502e-08
-3.0543399 -1.75 -7.6494103e-08
-2.9778199 -1.795 -7.8461099e-08
-3.5422699 -1.29413 -5.6567899e-08
-3.0748701 -2.0806999 -9.0949399e-08
-3.0885201 -1.95225 -8.5334896e-08
-3.26737 -1.8543299 -8.1054701e-08
-2.8597 -1.22407 -5.3505399e-08
-3.58394 -1.8528301 -8.0988897e-08
-3.53301 -1.27167 -5.5586199e-08
-2.71189 -1.13527 -4.9623601e-08
-3.2941899 -1.6394 -7.1659599e-08
-3.1432099 -1.13538 -4.96285e-08
-3.4394901 -1.71292 -7.4873597e-08
-3.26069 -1.7688299 -7.7317502e-08
-3.2095201 -1.9108599 -8.3525698e-08
-3.07127 -1.76657 -7.7218701e-08
-3.3022101 -1.3136899 -5.7422799e-08
-3.38076 -1.49244 -6.52363e-08
-2.93821 -1.90865 -8.3429001e-08
-2.9429901 -2.0030799 -8.7556501e-08
-2.7885699 -1.4162101 -6.1903997e-08
-3.3131599 -1.30945 -5.72375e-08
-2.80165 -1.38236 -6.0424199e-08
-3.6163199 -1.98528 -8.67784e-08
-2.90574 -1.31306 -5.7395098e-08
-2.85343 -1.39527 -6.0988597e-08
-3.1926501 -1.20623 -5.2725699e-08
-3.112 -1.73886 -7.6007197e-08
-3.34251 -1.91888 -8.3876301e-08
-3.2405601 -1.59661 -6.97895e-08
-2.8279099 -1.1719 -5.1224799e-08
-3.6208999 -1.61308 -7.0509401e-08
-3.26442 -1.18558 -5.1822699e-08
-3.0852699 -1.95042 -8.5254797e-08
-3.4900701 -1.37808 -6.0237198e-08
-3.5936699 -1.3712 -5.9936603e-08
-3.55708 -2.07197 -9.0568101e-08
-3.6271 -1.51885 -6.6390399e-08
-3.51495 -1.44396 -6.31169e-08
-3.5352399 -1.37058 -5.9909397e-08
-3.22456 -1.5269001 -6.6742501e-08
-3.70032 -1.2704901 -5.5534301e-08
-2.9426799 -1.67654 -7.3282997e-08
-3.6164701 -1.46679 -6.41149e-08
-3.39238 -1.13934 -4.9801798e-08
-3.40063 -1.26431 -5.5264401e-08
-3.03144 -1.7617199 -7.7006398e-08
-3.2139201 -2.03497 -8.89505e-08
-3.2620001 -1.29243 -5.6493398e-08
-2.7926199 -1.23721 -5.40795e-08
-3.6027701 -1.55694 -6.8055499e-08
-3.6056199 -1.29588 -5.6644101e-08
-3.5629301 -1.71104 -7.4791103e-08
-3.48279 -1.35338 -5.9157799e-08
-3.5343599 -1.90444 -8.3245098e-08
-3.4311299 -1.44625 -6.3216902e-08
-3.5473101 -1.79361 -7.8400497e-08
-3.4337299 -1.75893 -7.6884596e-08
-3.58916 -1.85005 -8.0867501e-08
-2.99316 -1.6015199 -7.0004198e-08
-3.5713 -1.48514 -6.4917103e-08
-3.55972 -1.18543 -5.18165e-08
-3.5058801 -2.0485101 -8.9542297e-08
-3.43925 -1.39663 -6.1047999e-08
-3.0580001 -1.6919399 -7.39564e-08
-3.35639 -1.71018 -7.47537e-08
-3.35955 -1.8918101 -8.26929e-08
-3.6327701 -1.7237099 -7.53449e-08
-3.29211 -1.30366 -5.6984099e-08
-3.1187201 -2.0862 -9.1189698e-08
-3.53971 -1.25032 -5.4652599e-08
-2.9576099 -2.0181601 -8.82157e-08
-3.39889 -1.79857 -7.8617198e-08
-3.3822701 -1.91399 -8.3662499e-08
-3.6659801 -1.77833 -7.7732501e-08
-3.6163099 -1.89959 -8.30331e-08
-3.44872 -1.49967 -6.5551902e-08
-3.1571 -1.9579999 -8.5586301e-08
-3.5058801 -2.0485101 -8.9542297e-08
-3.49998 -1.2074701 -5.27799e-08
-3.04862 -1.96798 -8.6022297e-08
-3.6465199 -1.39387 -6.0927498e-08
-3.3648801 -1.7749799 -7.7586002e-08
-3.19543 -1.97234 -8.6212999e-08
-3.4869699 -1.2776901 -5.5849e-08
-3.4567699 -1.66247 -7.26683e-08
-3.6756599 -1.6148601 -7.0587298e-08
-3.17361 -1.27491 -5.5727401e-08
-3.6577301 -1.41266 -6.17488e-08
-3.2095201 -1.9108599 -8.3525698e-08
-3.5901501 -1.54389 -6.7484798e-08
-3.4878199 -1.77402 -7.75443e-08
-2.87956 -1.82416 -7.9735699e-08
-3.1895199 -1.88606 -8.2441602e-08
-3.0780799 -1.81985 -7.9547704e-08
-3.3559101 -1.99073 -8.7016701e-08
-3.2262101 -1.90412 -8.32311e-08
-3.1600001 -1.8946 -8.2814999e-08
-3.2863801 -1.97887 -8.6498403e-08
-2.9479499 -1.71501 -7.4964902e-08
-3.23931 -1.98123 -8.6601602e-08
-3.2024901 -1.83395 -8.0163602e-08
-3.3580899 -2.03631 -8.90089e-08
-3.48406 -1.68978 -7.3861997e-08
-3.3574901 -1.89882 -8.2999399e-08
-2.9721501 -1.70355 -7.4463898e-08
-3.5657401 -1.66505 -7.27809e-08
-3.55581 -1.83341 -8.0139998e-08
-3.0580399 -1.64852 -7.2058398e-08
-3.5792799 -2.1087601 -9.2176201e-08
-3.19964 -1.58147 -6.9127601e-08
-3.1252799 -2.0425701 -8.9282899e-08
-2.9086499 -1.85514 -8.1090199e-08
-3.4170001 -1.6914901 -7.3936903e-08
-3.1742101 -1.2693501 -5.5484399e-08
-2.9662099 -1.93692 -8.4664798e-08
-2.87114 -1.90546 -8.32895e-08
-3.2818699 -2.1128199 -9.2353403e-08
-3.4954801 -1.27458 -5.5712999e-08
-3.17361 -1.27491 -5.5727401e-08
-3.2007101 -1.85449 -8.1061501e-08
-3.68698 -1.35721 -5.9325099e-08
-3.20403 -1.85861 -8.1241801e-08
-2.85343 -1.39527 -6.0988597e-08
-3.28143 -1.4635299 -6.3972401e-08
-3.08847 -1.88956 -8.2594497e-08
-2.9769399 -1.27941 -5.5924101e-08
-3.6294899 -1.54369 -6.74764e-08
-3.47069 -1.34621 -5.88443e-08
-3.18648 -2.0397501 -8.91593e-08
-3.6485701 -1.43559 -6.2750999e-08
-3.65118 -1.72674 -7.5477402e-08
-3.7104499 -2.1313701 -9.3164303e-08
-2.98173 -2.0088301 -8.7808097e-08
-3.47224 -1.528 -6.6790498e-08
-3.3492301 -1.9335999 -8.4519698e-08
-3.35077 -1.35778 -5.9349802e-08
-3.26986 -1.1725 -5.1251199e-08
-3.60606 -1.39595 -6.1018397e-08
-3.2246699 -1.83307 -8.0125297e-08
-2.9869599 -1.95924 -8.5640302e-08
-3.56896 -1.2994 -5.6797901e-08
-3.46346 -1.7829601 -7.7934899e-08
-3.5682299 -1.3448 -5.87826e-08
-3.4888 -2.0272999 -8.8615302e-08
-2.81319 -1.2737499 -5.56769e-08
-3.57373 -1.40088 -6.1233997e-08
-2.9778199 -1.795 -7.8461099e-08
-3.1320901 -2.1098101 -9.2222102e-08
-3.33692 -1.56734 -6.8509998e-08
-3.46732 -1.30761 -5.71568e-08
-3.3013599 -1.96363 -8.5832198e-08
-3.30005 -1.4213901 -6.2130198e-08
-3.2376299 -1.77888 -7.7756702e-08
-3.55566 -1.42838 -6.2435703e-08
-3.2890899 -1.4233 -6.22138e-08
-3.1912701 -1.76161 -7.70019e-08
-3.4631701 -1.86937 -8.1712201e-08
-3.4029701 -1.57393 -6.87983e-08
-3.6354599 -2.0334499 -8.8884001e-08
-3.4256899 -1.56022 -6.8198901e-08
-2.9758101 -1.22616 -5.3596501e-08
-3.58745 -1.93797 -8.4710599e-08
-3.14344 -1.192 -5.2103399e-08
-3.56375 -1.32775 -5.8037202e-08
