# .PCD v0.7 - Point Cloud Data file format
VERSION 0.7
FIELDS x y z
SIZE 4 4 4
TYPE F F F
COUNT 1 1 1
WIDTH 1859
HEIGHT 1
VIEWPOINT 0 0 0 1 0 0 0
POINTS 1859
DATA ascii
2.85536 2.9626901 0.84020299
2.99016 3.0799501 1.1357
2.73772 3.1122 0.62627
2.2899401 3.1122 1.12375
2.2994699 3.1122 2.7274201
2.4751501 3.1122 0.703848
2.85536 2.90044 1.12835
3.26753 3.1122 1.07441
2.4861801 3.1122 1.94996
2.8338499 3.1122 0.064066701
2.99016 2.91257 0.597359
3.05388 3.1122 1.14254
2.3298099 3.1122 0.30867201
2.73649 3.1122 2.67032
3.03338 3.1122 1.20237
2.31197 3.1122 0.98435599
3.18484 3.1122 1.54346
2.63536 3.1122 2.11554
2.36833 3.1122 1.63424
3.1145999 3.1122 2.3942599
2.3285799 3.1122 1.41717
2.5332799 3.1122 2.1078
3.22841 3.1122 0.11086
2.65571 3.1122 2.43349
2.51034 3.1122 0.27577099
2.65713 3.1122 2.7060201
2.99016 3.0035901 1.67586
2.4594901 3.1122 1.2085299
2.7224901 3.1122 2.9844201
3.2659199 3.1122 2.1333101
2.85536 3.0850201 1.78495
2.8078101 3.1122 2.49508
2.2939601 3.1122 1.38173
2.37656 3.1122 1.87279
2.99016 2.87591 1.6716
3.1122 3.1122 2.4038701
2.5244601 3.1122 1.25693
3.2254601 3.1122 2.32184
3.10221 3.1122 0.045991998
2.5058401 3.1122 1.94947
2.85536 3.09532 0.89113301
3.2858801 3.1122 1.81991
2.85536 2.86836 1.84136
3.11356 3.1122 2.64486
2.99016 2.9289501 0.345676
2.3636799 3.1122 1.36579
2.46999 3.1122 1.81047
2.82178 3.1122 0.0619663
2.6618199 3.1122 1.77133
2.99016 2.8861201 1.76722
2.2994499 3.1122 1.513
3.2593801 3.1122 0.34515101
2.99016 2.8974299 0.463361
3.17749 3.1122 2.9612999
2.85536 2.8900499 0.30106199
2.99016 3.0752201 0.79962802
2.5251501 3.1122 0.35988501
2.75808 3.1122 2.5156
2.3919799 3.1122 1.96567
2.99016 3.04989 1.1773
2.85536 2.9291301 0.357512
2.85536 3.1085701 0.26965901
2.99016 3.0689099 1.08938
2.85536 3.0948901 2.38552
2.85536 3.0371001 2.6162801
2.99016 2.98439 0.28415799
2.68837 3.1122 2.8198199
2.47891 3.1122 0.87848198
2.85536 2.8722 2.21857
2.85536 2.94929 1.08541
2.99016 2.9014699 2.59108
2.74506 3.1122 2.46524
3.04913 3.1122 1.08453
2.3571 3.1122 1.27011
3.0745699 3.1122 2.39241
2.4007699 3.1122 0.79132497
3.08181 3.1122 1.28899
2.3921001 3.1122 2.4890201
2.99016 3.1060901 0.969724
2.8302 3.1122 0.98678499
2.99016 2.8917401 1.97751
3.2306001 3.1122 0.98429
2.85536 2.9793899 1.3050801
2.99016 3.0158801 1.1281199
2.5566599 3.1122 2.4261
2.67787 3.1122 2.21767
2.99016 2.8810799 2.66079
2.99016 2.8727701 0.35368201
3.1835301 3.1122 2.37152
3.1610899 3.1122 1.53128
2.4410901 3.1122 2.36168
3.12304 3.1122 1.13782
2.62362 3.1122 1.24429
2.99016 3.0346501 0.59529001
2.99016 2.8882699 1.95593
2.99016 2.9288499 0.557298
2.59215 3.1122 2.0029199
2.2939601 3.1122 1.38173
2.57253 3.1122 2.4142001
3.0375099 3.1122 0.546709
2.44733 3.1122 2.2731299
2.99016 3.1060901 0.969724
3.1875501 3.1122 0.53288102
2.99016 2.99158 0.93480098
2.4351499 3.1122 1.79107
2.34073 3.1122 1.8271
2.81287 3.1122 0.042651098
2.6563101 3.1122 2.3783
2.99016 3.03511 0.38819301
2.62432 3.1122 2.21965
2.99016 2.9668701 1.12472
2.4177699 3.1122 1.0539401
3.0546 3.1122 0.97545302
2.5662501 3.1122 2.3520899
2.99016 2.9000101 1.23113
2.99016 2.96051 0.22115301
2.63399 3.1122 1.74069
2.5221 3.1122 1.14855
2.85536 2.8742099 1.23256
3.2389901 3.1122 1.52505
3.02105 3.1122 1.45578
2.3465099 3.1122 2.6326301
2.99016 2.87796 2.1107399
3.14904 3.1122 0.95965302
2.6289599 3.1122 1.64806
2.7914701 3.1122 1.69326
2.7532201 3.1122 2.62252
2.78389 3.1122 0.66912699
3.28655 3.1122 1.30583
2.51705 3.1122 0.72022802
2.99016 3.0848501 3.0125501
2.73612 3.1122 2.6219399
2.82991 3.1122 0.025528301
2.99016 2.9868801 0.98419702
2.4017799 3.1122 0.089551397
2.99016 3.01982 2.0256701
2.6753399 3.1122 0.70181203
2.33673 3.1122 1.2437299
2.6850901 3.1122 2.91519
3.18981 3.1122 0.97391599
2.99016 3.0463901 1.14605
2.5854101 3.1122 1.80243
2.7206099 3.1122 1.7346801
2.3464301 3.1122 1.34392
2.99016 2.9700501 0.45164901
2.3980999 3.1122 2.5870299
2.81795 3.1122 0.98017198
2.47436 3.1122 0.75028002
2.3289299 3.1122 2.84201
3.16045 3.1122 1.1245199
2.5882101 3.1122 2.5747299
3.16435 3.1122 1.58567
2.34266 3.1122 2.3555801
3.0778601 3.1122 0.96995997
2.85536 3.0313399 0.814179
3.2597799 3.1122 0.353816
2.6535699 3.1122 1.79309
2.6966 3.1122 1.81952
3.27373 3.1122 2.1210699
2.5630701 3.1122 0.60328299
3.2560501 3.1122 1.3984801
2.4084799 3.1122 1.87989
2.85536 2.9056699 2.5869701
2.85536 2.9499099 0.667041
3.24086 3.1122 1.44663
2.5406401 3.1122 1.7812001
2.85536 2.9253099 0.99467897
2.64605 3.1122 1.94551
2.99016 2.87254 2.51109
2.37497 3.1122 2.81949
2.99016 2.8860099 2.2474699
3.2443199 3.1122 2.7116799
2.99016 2.9077401 0.204504
2.3225601 3.1122 0.87764603
2.99016 2.98737 1.67927
2.49593 3.1122 0.169957
2.85536 3.1043501 0.976053
2.85536 3.10554 0.87934399
2.85536 2.8826001 0.950966
2.99016 2.96609 1.36585
2.99016 2.95385 0.49960101
2.85536 3.07658 0.62685502
3.2713101 3.1122 1.5172499
2.5167301 3.1122 2.31529
2.7969 3.1122 0.598701
2.85536 3.0943601 1.8147
2.5952499 3.1122 2.0048599
2.99016 2.97804 1.44538
2.4709699 3.1122 0.34921101
2.99016 2.9231999 2.74196
3.17645 3.1122 1.9103301
3.22015 3.1122 2.0518401
2.6942301 3.1122 0.27496499
2.85536 2.8902099 2.6516399
2.99016 3.06146 0.97022498
2.4200599 3.1122 0.69435298
2.6154301 3.1122 2.6947601
2.85536 2.93155 0.84943199
2.56111 3.1122 1.86501
2.61726 3.1122 3.0395501
2.72577 3.1122 0.72209799
2.99016 2.87326 1.65408
2.8375399 3.1122 0.80970103
3.0139101 3.1122 0.032579899
2.4878399 3.1122 1.24454
2.46698 3.1122 0.274591
2.99016 2.9976101 2.72019
2.56761 3.1122 2.21592
3.00401 3.1122 1.0594
2.99016 2.99507 0.98969603
3.18081 3.1122 1.52959
2.6252601 3.1122 0.067503497
2.85536 3.0322299 0.798572
2.5324099 3.1122 2.22334
2.51704 3.1122 0.018648099
2.31442 3.1122 0.84049302
3.1205699 3.1122 2.62708
2.3178999 3.1122 0.76499897
2.7302001 3.1122 2.6689701
2.5139 3.1122 2.3155999
3.2511499 3.1122 2.1006601
2.71545 3.1122 1.8471
2.4888999 3.1122 2.4939201
2.85536 3.01511 1.76166
3.0948999 3.1122 2.9428899
2.83828 3.1122 1.75697
2.99016 3.0924201 0.78207302
2.55301 3.1122 2.2456501
2.3785 3.1122 2.6633401
2.85536 3.0025499 0.71764898
2.7448399 3.1122 2.5883
2.6956799 3.1122 0.16225401
2.5052199 3.1122 1.98551
3.0555501 3.1122 1.95346
2.4526401 3.1122 0.29245701
2.7897301 3.1122 2.6293499
3.15516 3.1122 1.3954
3.1027901 3.1122 1.5083899
2.85536 2.94733 2.38889
2.99016 2.9517901 0.461144
2.5134101 3.1122 2.1050301
2.85536 2.9842701 2.5269101
2.7983 3.1122 2.0471001
2.3285799 3.1122 1.1636
2.85536 3.0244999 0.72923797
2.52671 3.1122 1.23985
2.85536 3.00613 1.06541
3.08566 3.1122 0.91864699
3.0521901 3.1122 0.693941
3.0053599 3.1122 1.29847
2.8520601 3.1122 0.26439101
2.81148 3.1122 0.118928
2.85536 2.90084 0.82545203
2.3032899 3.1122 1.19371
2.85536 3.0136199 0.974635
2.8273399 3.1122 2.0698099
2.85536 2.8889101 2.40574
2.99016 2.9352 1.7812999
2.85536 2.92117 1.48571
2.62272 3.1122 2.69526
3.0797601 3.1122 1.36885
2.99016 2.9196 1.15975
2.8043599 3.1122 2.72352
3.2319801 3.1122 1.57936
2.3973801 3.1122 2.2737701
3.05388 3.1122 1.14254
3.1738601 3.1122 0.560655
3.10829 3.1122 2.0148799
3.07212 3.1122 0.418529
2.99016 3.01564 1.04812
2.99016 3.10673 0.942702
2.6061599 3.1122 0.31969801
2.5420899 3.1122 2.52163
2.7604001 3.1122 2.3726201
2.6164701 3.1122 1.6069601
2.7916801 3.1122 0.076296903
2.73106 3.1122 2.6544099
2.54985 3.1122 1.16527
2.4388599 3.1122 2.6077001
2.63832 3.1122 2.3529999
3.23509 3.1122 0.482003
3.19683 3.1122 1.0477999
2.81882 3.1122 2.6129
2.3815501 3.1122 1.20898
2.99016 2.8966801 2.0562301
2.99016 2.9671299 0.97846502
2.6623199 3.1122 2.41538
3.1045899 3.1122 0.54777199
3.1900301 3.1122 1.9498301
2.68367 3.1122 2.97892
2.3661201 3.1122 2.4862499
2.7607801 3.1122 0.110804
2.85536 3.07388 0.25023201
2.82724 3.1122 1.7224801
3.1982601 3.1122 1.6233701
2.375 3.1122 2.3664401
3.20363 3.1122 1.31611
2.85536 3.0357499 0.75300002
3.2255499 3.1122 0.36635801
2.5214 3.1122 0.78390503
3.0239 3.1122 1.1033601
2.99016 3.0989201 1.32429
3.2095001 3.1122 1.3721499
2.9909501 3.1122 0.063765101
2.83569 3.1122 1.76579
3.2443199 3.1122 2.7116799
3.2121999 3.1122 0.455901
2.99016 2.9409299 1.24184
2.85536 2.9202199 1.61317
2.4208601 3.1122 1.93322
2.7970099 3.1122 2.5796299
2.5391901 3.1122 0.259139
2.85536 2.91431 0.314989
2.85536 2.9008601 1.46206
2.5399799 3.1122 0.79485101
2.34778 3.1122 2.73473
2.99016 3.0977001 2.0039599
2.5656099 3.1122 1.13564
2.7449801 3.1122 2.54073
2.99016 2.99154 1.37403
2.38852 3.1122 1.2288001
2.5885601 3.1122 0.76072103
2.6292601 3.1122 2.5086601
2.6901901 3.1122 3.0549901
2.62113 3.1122 1.97629
3.1515999 3.1122 2.89468
2.53406 3.1122 2.80428
3.1237099 3.1122 1.11483
2.99016 3.0675399 0.632846
2.99016 2.91064 0.44750199
2.4027901 3.1122 2.6296401
2.85536 2.9066899 0.47914001
2.4771199 3.1122 1.85215
2.5798199 3.1122 2.21556
3.0835099 3.1122 0.43443301
3.1408 3.1122 2.8010299
3.0973401 3.1122 2.4193101
2.72313 3.1122 3.00335
2.71521 3.1122 0.47718599
2.7399001 3.1122 1.9183199
2.85536 3.1080899 0.598158
2.47172 3.1122 2.3670001
2.54686 3.1122 1.70202
2.99016 2.9012201 1.23198
2.85536 2.90381 2.3850901
2.41662 3.1122 0.78830701
2.85536 2.99701 1.75116
3.08197 3.1122 0.88048398
3.24701 3.1122 2.2061999
3.0604999 3.1122 2.3625901
2.7341001 3.1122 2.86796
2.53264 3.1122 2.5615201
3.05323 3.1122 0.77908802
2.3526199 3.1122 1.90782
2.35026 3.1122 2.4277699
2.8271401 3.1122 2.50755
3.0534101 3.1122 1.59953
3.08059 3.1122 1.15851
2.85536 2.8886001 1.34728
2.6640501 3.1122 0.124569
2.3750801 3.1122 0.23325001
2.85536 2.92191 0.66413498
2.99016 3.03478 1.45477
2.67307 3.1122 0.49933299
2.6985099 3.1122 0.042210199
3.07897 3.1122 0.79339302
3.0618801 3.1122 2.3419099
2.78565 3.1122 0.188279
2.85536 2.9935701 0.82972097
2.4338701 3.1122 2.24875
3.19081 3.1122 1.98533
2.8210599 3.1122 0.648974
2.85536 2.9170001 1.1134501
2.8320999 3.1122 0.228754
2.7733099 3.1122 0.59954101
3.0455999 3.1122 0.94019598
2.43396 3.1122 2.7414
2.6289599 3.1122 1.64806
2.4112101 3.1122 0.091613099
2.5831299 3.1122 2.2885101
2.85536 3.0286801 2.4560201
2.40277 3.1122 1.81341
2.57692 3.1122 1.9198
2.99016 3.0066299 1.60937
3.2056 3.1122 1.64212
2.99016 2.9830999 0.43205801
2.57763 3.1122 0.62645
3.02649 3.1122 0.96245402
2.99016 2.9772999 1.09723
2.49139 3.1122 0.69489801
2.52636 3.1122 0.29486701
2.7379601 3.1122 0.091039397
2.8232701 3.1122 0.31827
2.6335101 3.1122 2.0483201
3.2756901 3.1122 1.67785
2.5602601 3.1122 0.52847499
2.7162399 3.1122 1.94463
2.3198099 3.1122 0.33180699
2.85536 2.8840599 2.38028
2.5589001 3.1122 0.078182504
2.7208099 3.1122 3.03335
2.54406 3.1122 0.30193201
2.99016 3.0201001 1.36238
2.83781 3.1122 2.4583399
2.4421301 3.1122 2.3536899
2.99016 2.9070401 1.88948
3.0669799 3.1122 2.7026601
2.5244801 3.1122 1.12152
2.4296 3.1122 2.3879001
2.6575301 3.1122 2.75282
3.1276801 3.1122 3.04234
2.54389 3.1122 2.3461001
2.99016 3.1076601 0.58089602
2.7897 3.1122 2.67292
3.1761401 3.1122 1.56001
2.6558499 3.1122 1.65975
2.99016 3.0175099 2.36759
3.1254699 3.1122 1.98918
2.99016 2.9588499 2.1970899
3.2357199 3.1122 0.077370502
2.68929 3.1122 0.393053
2.85536 2.8947101 1.78527
2.99948 3.1122 1.40763
2.4605601 3.1122 0.70623499
2.32019 3.1122 2.0606101
2.99016 3.0204599 2.33552
2.99016 2.95368 1.551
3.0843799 3.1122 0.98265702
3.12398 3.1122 1.41906
2.40604 3.1122 2.12293
2.4235001 3.1122 0.91626
2.3122201 3.1122 1.9342099
2.99016 3.1060901 0.969724
3.19959 3.1122 1.97168
2.6984601 3.1122 2.7995701
2.55317 3.1122 0.76557499
2.53386 3.1122 2.7139499
3.1066201 3.1122 1.30223
2.85536 2.87975 0.95170701
2.5998299 3.1122 2.5242801
2.99016 2.97574 1.56444
2.85536 2.9247401 1.6399699
2.5592899 3.1122 0.38392201
2.99016 2.8796899 2.57604
2.6183801 3.1122 1.95005
2.99016 2.9068401 1.2125
3.2355399 3.1122 1.8306
2.5227599 3.1122 0.638596
2.99016 3.01265 0.637613
2.5292399 3.1122 0.212394
2.55832 3.1122 2.3926301
2.85536 2.88728 0.75924599
2.85536 3.1076901 0.92337
2.30196 3.1122 1.12273
2.85536 3.0392399 0.98746502
2.7133701 3.1122 1.77358
2.35076 3.1122 2.0650201
2.99016 3.0463901 1.14605
3.1907101 3.1122 1.54081
2.85536 3.09231 0.78801501
2.85536 2.9291301 0.357512
2.4287701 3.1122 2.3661201
2.4026599 3.1122 1.1951801
2.60238 3.1122 0.42914701
2.4252999 3.1122 1.94113
2.85536 2.97842 0.581761
2.99016 2.89711 2.3558199
2.34235 3.1122 2.6165299
2.4002199 3.1122 1.08503
2.99016 2.9636099 0.94712299
2.3822999 3.1122 0.85649902
2.49874 3.1122 2.3257501
3.21855 3.1122 2.42716
2.65271 3.1122 2.7769499
3.28073 3.1122 2.0216701
3.26772 3.1122 1.68302
2.83183 3.1122 0.138914
2.46034 3.1122 1.87928
3.0018799 3.1122 1.64064
3.15484 3.1122 2.98506
2.79584 3.1122 2.57338
2.85536 2.8764701 1.58921
2.99016 2.9966099 0.56311601
2.99016 2.8957801 0.20985501
3.1508601 3.1122 1.6401401
2.33601 3.1122 1.2379
2.99016 2.92799 0.98260403
2.99016 3.0022399 0.186691
2.99016 2.9379001 1.31407
3.1284399 3.1122 1.99647
2.39853 3.1122 0.73232198
2.36744 3.1122 0.74424601
3.01667 3.1122 3.0419199
2.4786999 3.1122 2.74701
2.6613901 3.1122 3.0519199
2.37147 3.1122 2.5897999
2.99016 3.0422599 1.34277
2.85536 3.01279 1.72699
2.6795299 3.1122 2.8889899
3.0245299 3.1122 0.68548697
2.99016 2.9862299 0.63072401
3.0677099 3.1122 1.38297
2.99016 2.87444 2.52388
2.8025401 3.1122 1.80239
2.6120801 3.1122 0.040485501
2.85536 2.9259901 1.45172
2.99016 3.1094999 1.10054
3.14536 3.1122 0.042190999
2.99016 3.0483401 0.93579602
3.0760801 3.1122 0.52807701
2.61127 3.1122 1.18381
2.8547201 3.1122 1.78229
3.20682 3.1122 1.38026
2.99016 2.93208 1.3288701
3.1268301 3.1122 2.72349
2.84356 3.1122 1.0407701
3.05193 3.1122 1.06489
2.7281899 3.1122 0.14732
2.85536 3.0644801 2.64606
3.01478 3.1122 1.12766
2.99016 3.01546 1.2236201
2.85536 3.00998 1.74484
2.63149 3.1122 0.16765501
2.5852301 3.1122 0.321944
2.7337101 3.1122 2.3832901
2.2894199 3.1122 0.72321802
2.99016 3.0557799 0.53835398
2.99016 2.9653001 0.838974
2.6373401 3.1122 2.4953301
2.7420101 3.1122 2.32899
2.54036 3.1122 2.8185401
3.13851 3.1122 2.4791901
2.99016 3.0097101 1.35567
3.18103 3.1122 2.78565
2.85536 2.9073701 2.3573699
2.32125 3.1122 0.16051801
2.4728601 3.1122 1.0068901
2.3165801 3.1122 1.44919
2.99016 2.9463301 0.39719099
3.0546 3.1122 1.54659
2.5561399 3.1122 2.1176901
2.85536 2.95455 2.5769701
2.5593901 3.1122 1.20275
2.4272299 3.1122 1.18817
3.10817 3.1122 1.09799
2.5308199 3.1122 2.5831299
2.85536 2.8813601 1.07341
3.0575399 3.1122 0.877114
3.1842999 3.1122 1.09688
3.1391001 3.1122 1.09842
2.99016 3.07833 1.27824
2.73612 3.1122 2.6219399
3.2515199 3.1122 0.0131425
2.5422399 3.1122 0.380759
3.15781 3.1122 0.54444897
2.85536 2.9342899 2.6363599
2.44891 3.1122 2.7602899
3.07512 3.1122 0.85010397
2.99016 3.0460899 0.118042
2.3886399 3.1122 1.73166
3.11028 3.1122 1.23147
2.99016 3.1010399 0.36039001
2.7325599 3.1122 3.04317
2.99016 2.8752601 1.24848
3.0011401 3.1122 0.022782
2.7955999 3.1122 2.48997
2.53198 3.1122 1.2112401
2.4965601 3.1122 1.8584
2.5952499 3.1122 2.0048599
2.7717199 3.1122 2.55323
2.85536 3.10323 0.99771601
3.2092099 3.1122 1.3217
2.85536 2.9226501 0.365917
2.35076 3.1122 2.0650201
3.2846999 3.1122 0.25002101
2.4451301 3.1122 2.6215999
2.3584299 3.1122 2.2296801
2.5056701 3.1122 1.92217
2.5845799 3.1122 2.2162199
2.3591001 3.1122 1.76881
2.33635 3.1122 1.6379
2.3525901 3.1122 1.85028
2.55092 3.1122 2.36638
2.2925 3.1122 2.9965
2.5074201 3.1122 2.04759
3.13099 3.1122 1.46576
2.3721199 3.1122 2.26964
2.99016 2.97001 1.3578
2.99016 2.96523 0.255142
2.50018 3.1122 2.55723
2.6394501 3.1122 1.7402101
3.12236 3.1122 0.0267586
2.7831199 3.1122 1.87717
2.66626 3.1122 2.2357299
3.0978701 3.1122 2.74195
2.3984499 3.1122 1.13159
2.3480501 3.1122 0.713525
2.99016 3.1040201 0.36846599
3.0661399 3.1122 1.96271
2.99016 2.88184 1.52291
2.99016 3.11097 0.54195201
3.06056 3.1122 2.6947801
3.0191801 3.1122 1.15545
3.1988699 3.1122 0.438016
2.99016 2.9356899 1.13226
3.02649 3.1122 0.96245402
2.53406 3.1122 2.80428
2.66418 3.1122 0.101188
2.67155 3.1122 2.5757799
2.5784199 3.1122 0.28434101
3.23542 3.1122 2.7792799
2.6413701 3.1122 2.28458
2.81407 3.1122 0.071916498
2.85536 2.9248199 1.2254699
2.47562 3.1122 2.19679
2.85536 2.888 0.416953
2.8002 3.1122 2.5833001
2.8052001 3.1122 2.38515
3.28073 3.1122 1.31636
2.99016 3.0730901 0.74988598
3.2875099 3.1122 1.25788
2.99016 2.86976 0.58930701
2.99016 2.9561501 0.91815197
2.85536 2.9833 0.95981002
2.8426299 3.1122 2.59092
2.85536 2.9761901 2.5136499
2.3571701 3.1122 1.30724
2.99016 2.95892 1.6565
2.6444099 3.1122 1.69653
2.8203499 3.1122 1.01978
2.3139801 3.1122 0.71252799
2.85536 3.1073899 0.809605
2.85536 3.0411601 0.30963099
2.85536 3.09216 0.137679
2.99016 2.9330299 1.30031
2.40797 3.1122 2.2493701
2.85536 2.9871399 0.58907503
3.19098 3.1122 2.78685
2.4427299 3.1122 2.2478099
2.99016 2.9832699 0.56516099
2.6591001 3.1122 1.84101
2.7591801 3.1122 2.0380299
2.99016 2.87234 2.30092
2.32775 3.1122 2.6628001
2.4670701 3.1122 2.4828899
2.3993001 3.1122 2.11693
2.99016 2.9863 0.733913
2.99016 2.93525 2.0550799
3.1403999 3.1122 2.02354
2.85536 2.90307 1.44576
2.4802001 3.1122 0.200624
3.1475501 3.1122 1.37492
2.99016 2.97052 1.2372299
2.6073999 3.1122 2.12691
2.99016 3.0054801 1.69543
2.81497 3.1122 0.92407203
2.85536 3.0320401 0.98688602
2.85536 2.9309299 0.704184
2.85536 3.0160999 1.80935
2.6726501 3.1122 1.91142
2.68346 3.1122 2.20877
2.85536 3.0385001 2.4640701
2.3320601 3.1122 0.056630202
2.7925899 3.1122 1.84343
3.20574 3.1122 0.38685101
2.3785 3.1122 2.6633401
2.74385 3.1122 1.78452
3.0704401 3.1122 1.61664
2.8304601 3.1122 2.5768199
2.85536 2.9126301 1.73482
3.08887 3.1122 0.58179301
2.99016 3.03929 1.08875
2.99016 2.90927 2.6129999
2.55161 3.1122 2.0962999
3.27615 3.1122 0.31812799
2.99016 3.00264 0.75059098
3.1793799 3.1122 0.453578
2.85536 3.00998 1.74484
3.01384 3.1122 2.7658
2.431 3.1122 1.92556
2.85536 3.0098701 0.81805497
2.85536 3.0174999 0.29805201
3.0704999 3.1122 1.98725
3.23739 3.1122 0.91869199
3.24265 3.1122 2.78759
2.3931899 3.1122 2.34163
2.3822401 3.1122 1.24433
3.26249 3.1122 2.3900599
2.85536 2.88448 1.21262
3.27231 3.1122 0.981731
2.3543999 3.1122 2.2239101
2.7399001 3.1122 1.9183199
3.0325401 3.1122 2.37498
2.72756 3.1122 2.2623701
2.99016 2.97001 1.3578
2.85536 2.9077899 0.88916397
3.2439201 3.1122 2.8113201
2.85536 2.9496601 0.82399499
3.18978 3.1122 2.9581399
2.7004499 3.1122 2.3485799
2.85536 2.94733 2.38889
2.85536 2.9367199 1.10861
2.8204801 3.1122 2.10356
2.4971001 3.1122 2.7551501
2.53231 3.1122 1.28678
2.36413 3.1122 1.9441299
2.85536 2.91522 1.41698
2.99016 2.95134 0.63635302
2.99016 2.88518 0.415162
2.5857201 3.1122 2.65394
2.3199999 3.1122 2.33991
2.3464301 3.1122 1.34392
2.6052301 3.1122 2.6944101
3.11358 3.1122 0.60005802
2.55546 3.1122 0.65657401
2.6308801 3.1122 0.49519601
3.1206801 3.1122 0.48983401
2.8510101 3.1122 0.62292099
2.67014 3.1122 0.571199
2.99016 2.93208 1.3288701
3.24651 3.1122 2.3280301
2.85536 3.0634699 0.83329701
3.07897 3.1122 0.79339302
3.0843899 3.1122 1.9834599
2.85536 2.8879001 0.33919999
2.99016 2.9978199 1.70909
3.27282 3.1122 0.45104
2.85536 2.93187 0.81869203
2.99016 3.10868 0.90173697
2.85536 2.9238 1.23145
2.4684899 3.1122 1.85496
3.26336 3.1122 1.44581
3.2258601 3.1122 1.93231
2.99016 3.1040201 0.36846599
2.6138 3.1122 0.68378299
3.2484801 3.1122 1.36953
3.18062 3.1122 0.52586401
2.63694 3.1122 2.7903399
2.3668399 3.1122 2.14731
2.85536 2.9846399 1.7670701
3.0503399 3.1122 1.32295
3.2425399 3.1122 3.0413899
2.72649 3.1122 2.7957599
2.85536 3.0637801 0.85933298
2.85536 3.01616 0.93858999
2.99016 3.0567801 1.9529999
2.85536 2.9418099 0.616611
2.80042 3.1122 1.8286999
2.3712599 3.1122 1.62693
2.5053799 3.1122 1.7181
2.85536 3.0209 1.05883
2.85536 2.9223399 0.82179201
2.5165701 3.1122 0.80170602
2.36428 3.1122 1.95397
2.29056 3.1122 2.8306899
2.35109 3.1122 0.17169499
2.66626 3.1122 2.2357299
2.3633001 3.1122 2.8118701
3.14305 3.1122 1.36792
2.85536 2.8805101 0.222077
2.5895 3.1122 2.4663899
2.85536 2.96683 1.17264
2.6055501 3.1122 2.3991799
2.85536 2.8790801 2.1136999
2.99016 2.9758899 0.68574399
2.31672 3.1122 2.34975
2.99016 3.0262001 0.042335302
3.1340699 3.1122 1.58158
2.99016 3.08706 0.0210078
2.85536 3.1100299 0.80419701
2.3436201 3.1122 1.68957
2.29351 3.1122 1.73874
2.99016 2.9246399 1.72916
2.6138 3.1122 0.68378299
2.85536 2.9077899 0.88916397
2.85536 3.10061 2.62692
2.3610401 3.1122 0.73007101
2.99016 2.9714799 1.1294
3.2837701 3.1122 0.44578201
2.48841 3.1122 2.7706299
3.2541399 3.1122 1.53058
2.6123199 3.1122 0.071382098
2.64697 3.1122 2.19168
2.6092501 3.1122 2.0880799
2.99016 2.93121 0.191618
2.40873 3.1122 0.310045
2.99016 2.9446001 1.62928
2.63868 3.1122 2.5833399
2.99016 2.92556 2.1558101
2.9939799 3.1122 0.55083001
3.03526 3.1122 1.01353
2.29742 3.1122 1.72728
2.99016 2.92361 1.42469
2.99016 2.9888401 1.58646
2.85536 2.92624 1.03231
2.6036601 3.1122 2.40259
2.5166099 3.1122 2.49894
2.5959899 3.1122 1.7388099
2.5988901 3.1122 2.70838
2.85536 2.9932599 0.85496002
2.99016 2.87483 0.51332599
2.85536 2.9229801 0.93051398
2.4454999 3.1122 1.69023
3.0687101 3.1122 2.6947401
2.6204901 3.1122 1.6901
2.6094899 3.1122 1.29361
2.2894199 3.1122 0.72321802
2.3022799 3.1122 1.24744
2.76003 3.1122 2.4198699
3.0543001 3.1122 0.019420199
3.06056 3.1122 2.6947801
3.17645 3.1122 1.9103301
2.85536 2.8689201 0.40104201
2.7053299 3.1122 2.2032001
2.6591001 3.1122 1.84101
2.99016 3.08253 0.56045997
3.1689401 3.1122 2.28824
2.85536 3.03582 0.908656
2.99016 2.87079 2.48154
2.65802 3.1122 1.64818
2.85536 3.0176001 2.6684599
2.99016 2.97856 0.59631699
2.29073 3.1122 2.7514601
2.5360401 3.1122 2.23773
2.99016 2.9144299 0.207669
2.6429 3.1122 2.0494699
2.3583601 3.1122 1.03282
2.67856 3.1122 0.76950502
2.48123 3.1122 0.76659501
2.99016 2.9481201 0.24014799
2.3559201 3.1122 1.34332
2.85536 2.9671199 0.65911901
3.1452999 3.1122 1.61202
2.8351901 3.1122 2.6407001
2.56319 3.1122 1.15281
3.1066201 3.1122 1.30223
3.16187 3.1122 0.533611
2.6056199 3.1122 0.19641501
3.2775199 3.1122 2.8269801
2.4504399 3.1122 0.048319701
2.99016 2.8817 2.0688901
2.56598 3.1122 0.17925601
2.75349 3.1122 0.21959899
2.4481201 3.1122 1.23095
2.99016 2.97205 0.74677402
2.80042 3.1122 1.8286999
3.00685 3.1122 0.0180548
2.47048 3.1122 1.12514
2.6036601 3.1122 1.20436
2.99016 2.8844099 0.72079599
3.23664 3.1122 2.3150899
2.83934 3.1122 0.19527701
2.78565 3.1122 0.188279
3.17026 3.1122 1.15898
2.3336699 3.1122 1.9246
2.3903601 3.1122 0.925286
3.0408101 3.1122 1.43072
3.12132 3.1122 2.8415599
2.3986101 3.1122 1.08294
2.51191 3.1122 1.84677
3.279 3.1122 2.24892
2.70158 3.1122 1.70585
2.99016 3.0773101 2.36836
3.25176 3.1122 3.01248
2.99016 3.00333 1.3033
2.4133201 3.1122 0.95682502
3.14906 3.1122 1.0311
2.3250899 3.1122 2.24546
2.99016 2.95368 1.551
2.85536 2.8912699 0.72558898
3.03146 3.1122 1.9468
2.85536 3.0532601 0.61507303
2.3963399 3.1122 1.7662801
2.99016 2.8833899 1.07296
2.67469 3.1122 2.0043499
2.5337901 3.1122 1.18009
2.4325099 3.1122 0.91514498
3.2148199 3.1122 2.4617
2.3714001 3.1122 0.19789401
2.99016 2.8996 1.38403
2.99016 3.0767 1.35704
2.5664999 3.1122 2.5922599
3.2683499 3.1122 1.36835
2.4567499 3.1122 0.78888297
2.5334699 3.1122 2.5049901
2.37748 3.1122 2.6951699
2.85536 2.9054799 1.67927
2.5931101 3.1122 1.73197
2.3814001 3.1122 1.32627
2.99016 3.1024799 2.34044
2.73772 3.1122 0.62627
2.99016 2.8886199 2.47595
2.85536 2.8724501 2.178
2.4888401 3.1122 0.78438902
2.99016 3.1106999 1.00406
2.99016 2.9069099 2.6734099
2.99016 2.94731 1.87176
2.9932001 3.1122 1.4747601
3.1055701 3.1122 1.04265
2.5257499 3.1122 1.94331
2.7163 3.1122 0.54528302
2.5585999 3.1122 1.7338099
2.99016 2.88991 0.67810303
2.78091 3.1122 2.1354499
2.36519 3.1122 1.19069
2.99016 3.10006 0.643336
2.85536 3.1075499 0.80016398
3.0067599 3.1122 1.40131
2.5630701 3.1122 0.60328299
3.2823501 3.1122 1.31689
2.99016 2.9712 1.2404
2.85536 3.0689299 0.89643103
2.3113999 3.1122 1.72191
2.58132 3.1122 1.13263
3.07287 3.1122 2.7453599
2.5101399 3.1122 2.0162201
2.99016 3.09674 0.72220099
3.21645 3.1122 0.052814201
2.50565 3.1122 1.9118299
2.99016 2.94681 1.72519
3.2843299 3.1122 1.78457
2.5636899 3.1122 1.19982
2.7206099 3.1122 1.7346801
2.8457501 3.1122 0.0264482
2.85536 2.8875599 2.41628
2.8122799 3.1122 1.82271
2.8392999 3.1122 0.72012502
2.7323301 3.1122 2.0142701
2.3057699 3.1122 1.79737
2.99016 2.9845901 0.163554
2.74313 3.1122 0.72448498
2.85536 2.9530101 0.72240603
2.7738099 3.1122 0.34418699
2.3499801 3.1122 2.16839
2.4888501 3.1122 2.4920199
2.85536 3.07863 1.07385
2.62486 3.1122 0.073195703
2.44207 3.1122 2.1238301
3.03474 3.1122 2.00318
2.85536 2.87799 0.835742
2.3791299 3.1122 0.291091
2.5116799 3.1122 0.163699
2.6057301 3.1122 0.76436198
2.99016 3.07302 1.43512
2.85536 2.9582801 1.07345
2.3203101 3.1122 1.55327
3.1665599 3.1122 1.10443
2.85536 2.92612 1.03992
3.2703199 3.1122 2.22612
2.4825101 3.1122 2.33215
2.7607801 3.1122 0.110804
2.99016 3.0386901 1.1158201
2.6940899 3.1122 0.29552299
2.99016 3.00806 0.119316
3.28069 3.1122 1.82781
2.6879499 3.1122 3.01285
3.1284399 3.1122 1.99647
3.23629 3.1122 1.13351
2.31425 3.1122 2.4453299
2.6412499 3.1122 0.47865301
2.85536 2.928 0.613657
2.99016 3.0794201 0.74550802
2.42466 3.1122 2.5371799
3.1584001 3.1122 2.7955201
2.4024601 3.1122 1.1255701
2.5064399 3.1122 1.8191
2.64972 3.1122 0.77268898
2.99016 2.89624 0.92354
3.1584599 3.1122 2.7442501
2.3562701 3.1122 1.71112
2.99016 2.9014201 2.57621
2.3081501 3.1122 1.13067
2.6489301 3.1122 2.8048401
2.85536 2.91201 0.94736201
2.99016 2.9154999 0.48458299
2.85536 2.9045701 1.23271
2.3341 3.1122 1.9974101
3.1645701 3.1122 1.3518
2.77858 3.1122 0.197271
2.9956601 3.1122 1.99797
2.85536 2.8764701 1.58921
2.5480199 3.1122 0.0276429
2.4556899 3.1122 1.9960099
2.85536 3.1099401 0.27436101
3.2560201 3.1122 0.95381701
2.41732 3.1122 0.32653201
2.4119 3.1122 0.77703297
3.2443199 3.1122 2.7116799
2.85536 2.8868699 2.7528601
3.0067599 3.1122 1.40131
2.30813 3.1122 1.99292
3.1338999 3.1122 1.02794
2.85536 2.9800899 1.34859
3.10021 3.1122 2.96312
3.03758 3.1122 1.41601
3.21085 3.1122 1.29062
2.85536 2.99034 1.739
2.85536 3.0313699 1.0929
2.99016 2.95561 1.66062
2.45556 3.1122 1.13421
2.8383 3.1122 2.5475199
2.7297101 3.1122 2.56113
3.20275 3.1122 2.6630001
3.18542 3.1122 2.2931199
2.85536 2.87447 1.44204
3.0724699 3.1122 1.32988
2.99016 2.99471 1.3084199
2.62203 3.1122 2.1551299
2.99016 3.0349 1.6647201
2.99016 2.95206 0.58112103
2.5494101 3.1122 1.97624
2.7955101 3.1122 2.35586
2.5341599 3.1122 1.9723001
3.03146 3.1122 1.9468
2.44333 3.1122 2.8074601
2.85536 2.92413 2.40645
2.85536 3.01072 1.69398
3.2656 3.1122 0.125053
2.99016 2.89624 0.92354
2.99016 2.9377301 0.25131801
2.2985401 3.1122 1.49362
2.7919199 3.1122 0.248154
2.3604901 3.1122 2.2347901
2.6224899 3.1122 1.6849999
2.63831 3.1122 2.65451
3.2843299 3.1122 1.78457
3.2857399 3.1122 1.63545
2.29022 3.1122 1.4260401
2.5287001 3.1122 2.3512299
2.99016 3.02531 0.096362598
2.85536 3.0403399 0.70001501
2.3919799 3.1122 1.96567
2.71856 3.1122 2.6686399
2.3087101 3.1122 2.55423
2.38205 3.1122 0.241372
2.71573 3.1122 2.0211301
2.99016 2.8687201 1.56371
2.81882 3.1122 2.56093
2.8355899 3.1122 2.08183
3.1505599 3.1122 1.3640701
3.0861599 3.1122 2.8309
2.99016 2.9302101 2.3716099
2.85536 2.93256 1.3718899
3.28198 3.1122 0.389431
2.99016 2.91153 0.446165
2.38502 3.1122 0.058309499
2.3406999 3.1122 2.4407201
2.99016 2.89691 1.20301
2.99016 2.8938501 1.0539401
2.99016 2.9002099 1.80551
3.1145999 3.1122 2.3942599
3.00367 3.1122 2.00386
2.58901 3.1122 1.75038
2.7634599 3.1122 0.033015899
2.99016 2.9862299 0.63072401
2.7267699 3.1122 0.21571501
2.99016 2.90484 0.929245
2.85536 3.0920801 0.28259999
2.4679899 3.1122 2.5940299
2.9988599 3.1122 1.30793
3.1464901 3.1122 2.4490399
3.04916 3.1122 0.411437
2.53984 3.1122 0.800789
2.8501799 3.1122 0.062253602
2.5148699 3.1122 0.64373702
2.60235 3.1122 0.513399
2.99016 3.03736 2.7151501
2.3032899 3.1122 1.19371
2.4390299 3.1122 2.26384
2.2999499 3.1122 0.037640698
3.00827 3.1122 0.91694599
3.11166 3.1122 0.91224498
2.7051499 3.1122 1.71077
2.39643 3.1122 1.3072799
2.81161 3.1122 0.022785399
2.85536 2.9409699 2.5348699
2.99016 3.05687 0.69276601
2.5903699 3.1122 0.099665999
2.83622 3.1122 2.57407
2.99016 2.8863201 1.62068
2.85536 3.05832 0.87476099
2.55161 3.1122 2.0962999
2.99016 3.1094799 0.86760998
2.3884799 3.1122 2.1468101
3.1944799 3.1122 2.7141099
2.99016 3.0248401 0.73615402
3.2532499 3.1122 2.2906301
2.99016 2.9565599 2.2046399
3.0822201 3.1122 1.33916
2.40693 3.1122 0.182367
2.6805201 3.1122 1.6031899
2.6395199 3.1122 2.7868299
3.0208399 3.1122 1.19806
3.1340699 3.1122 1.58158
2.6226499 3.1122 0.17012399
2.3496399 3.1122 2.7455101
3.26683 3.1122 2.36976
2.99016 3.05023 0.059339799
2.2978201 3.1122 1.01062
2.99016 2.9561801 3.0499799
2.99016 2.87256 1.98599
2.5818999 3.1122 0.190761
2.3287301 3.1122 2.3821199
2.49827 3.1122 0.220332
2.6586399 3.1122 2.5999899
3.18366 3.1122 2.4504199
2.44381 3.1122 1.27563
3.10344 3.1122 0.91260099
2.99016 2.89432 0.437383
2.5915 3.1122 1.80557
2.3204999 3.1122 0.93505901
3.01964 3.1122 1.27574
2.5069001 3.1122 0.153015
2.85536 2.8868699 2.7528601
2.3768699 3.1122 1.6384
3.1050501 3.1122 1.21513
2.76596 3.1122 0.740426
2.85536 3.0369799 1.07607
3.19572 3.1122 1.26422
3.0132699 3.1122 1.6116
2.99016 3.0071299 0.65213102
2.51808 3.1122 1.12962
3.0439999 3.1122 1.49182
2.99016 2.97804 1.44538
3.0894201 3.1122 2.7435801
3.2481599 3.1122 2.1471901
2.51037 3.1122 2.3843801
3.2495699 3.1122 2.27091
2.36428 3.1122 1.95397
3.2116399 3.1122 1.44766
2.99016 2.87233 0.189097
2.4133201 3.1122 0.95682502
2.99016 2.9446001 1.62928
2.4079001 3.1122 2.23874
2.85536 3.0098901 2.6271501
2.99016 2.8984001 0.37818
2.4960201 3.1122 2.2350099
2.84358 3.1122 0.0288799
2.76389 3.1122 0.56788999
2.31761 3.1122 1.10762
2.5559299 3.1122 0.327039
2.6975901 3.1122 2.0662799
2.99299 3.1122 0.82615501
2.4683499 3.1122 2.1340699
2.85536 2.8810101 1.58551
2.85536 2.9019499 0.48385301
3.0885701 3.1122 0.989124
2.4045899 3.1122 2.1500599
3.1719201 3.1122 2.9112899
3.2643001 3.1122 2.88556
2.42152 3.1122 1.80171
2.99016 2.9539199 1.80375
2.99016 3.1096499 1.2057
2.2957699 3.1122 1.28922
3.0432601 3.1122 1.22998
3.05388 3.1122 1.14254
2.85536 3.1034999 0.0434497
2.3259101 3.1122 0.69085902
2.99016 3.00282 0.33394501
2.523 3.1122 2.3336301
2.81952 3.1122 0.024982199
2.6000199 3.1122 1.1533099
2.3903601 3.1122 0.925286
2.38061 3.1122 0.82579601
3.2242501 3.1122 1.66162
2.85536 3.0822501 2.3993101
2.85536 3.0564001 1.83127
2.99016 3.09024 0.96707702
2.5123601 3.1122 2.0395601
2.29355 3.1122 2.5782001
2.69103 3.1122 0.51880401
3.04182 3.1122 1.49743
2.48962 3.1122 0.25962201
2.3675201 3.1122 1.31282
2.99016 2.8813901 0.0145636
2.85536 3.0201001 2.6166
3.05321 3.1122 2.3960299
2.99016 2.9026501 0.266022
2.99016 3.0150399 1.65368
2.85536 2.91172 0.91225803
2.99016 3.03212 0.35140899
2.81745 3.1122 0.97733003
2.64329 3.1122 0.29364499
3.15413 3.1122 1.19649
3.0518799 3.1122 1.24414
2.78567 3.1122 0.297748
3.22716 3.1122 2.0358901
2.99016 2.9082301 1.18112
2.3491299 3.1122 1.8560801
3.0711999 3.1122 0.61452001
2.99016 2.9335599 1.06634
2.99016 3.0696399 0.61630601
2.99016 2.9883001 2.6991999
2.7223599 3.1122 0.496398
2.7641001 3.1122 0.25756001
2.99016 2.87023 0.191532
2.85536 3.0608799 1.7164299
2.85536 3.0492301 0.73463702
2.99016 3.0460899 0.118042
2.85536 3.09216 0.137679
2.99016 3.0486 1.46039
2.85536 2.9319201 1.37822
2.9973199 3.1122 2.3919599
2.9939799 3.1122 0.55083001
2.99016 2.9832699 0.56516099
2.85536 3.0343299 1.08711
2.67155 3.1122 1.79983
3.0322101 3.1122 0.80913103
2.4230299 3.1122 2.57307
2.85536 2.9170799 1.26357
2.99016 2.94278 1.09938
3.28649 3.1122 0.90708202
2.99016 2.87146 2.4394801
2.3177099 3.1122 1.43094
2.52946 3.1122 0.25792801
2.5882499 3.1122 2.73752
2.99016 3.0308399 1.41906
2.99016 2.9089501 0.95051003
2.85536 2.9065199 1.41401
2.56745 3.1122 2.02057
2.56898 3.1122 2.20648
2.5215199 3.1122 0.32838199
2.37359 3.1122 1.83842
2.3034 3.1122 1.34912
2.3044701 3.1122 0.97402197
2.85536 2.96981 1.69187
2.99016 2.8678899 0.83507198
2.99016 2.89747 1.84446
2.6849799 3.1122 0.52152199
2.85536 3.0520999 1.02747
3.2766199 3.1122 1.1108299
2.75807 3.1122 1.6993901
2.6289599 3.1122 1.64806
2.73612 3.1122 2.6219399
2.99016 2.8886199 2.47595
2.99016 2.9772201 1.02089
2.99016 2.93033 3.0315001
2.99016 2.95506 0.64973497
2.41067 3.1122 2.5144501
3.28455 3.1122 1.56277
3.24348 3.1122 0.35479701
2.99016 2.95309 1.20667
2.3232601 3.1122 0.100216
2.6600201 3.1122 2.0748999
2.99016 2.91307 2.6011801
2.85536 2.9288199 0.80792201
2.4667599 3.1122 2.0078599
2.8471401 3.1122 0.97702998
2.99016 2.96345 2.17382
2.83372 3.1122 0.76214898
2.36093 3.1122 0.81752801
2.3336599 3.1122 1.80624
3.0880401 3.1122 1.62091
3.1965101 3.1122 2.51439
3.0171599 3.1122 1.27265
3.07512 3.1122 0.85010397
3.0560999 3.1122 1.40943
3.0594599 3.1122 0.50254399
3.2381699 3.1122 2.9636099
2.99016 2.91555 2.5400801
2.51456 3.1122 0.30593601
2.63536 3.1122 2.11554
2.85536 2.90154 1.70338
3.1847701 3.1122 1.46746
3.0486 3.1122 0.39695299
2.85536 2.95837 1.67477
2.85536 2.99769 0.212809
3.08093 3.1122 2.0120599
2.4976001 3.1122 2.10291
2.99016 2.9010701 0.198603
3.2650299 3.1122 1.0822001
2.60325 3.1122 2.34954
2.99016 2.9356699 1.36382
3.0966699 3.1122 1.51533
3.1364 3.1122 0.950598
2.99016 2.92293 1.25725
2.53917 3.1122 0.41840601
2.99016 3.1094799 0.89993203
2.99016 2.91188 0.56365901
2.3248601 3.1122 0.72199303
2.6506901 3.1122 2.30971
2.3306701 3.1122 1.5154001
2.5606999 3.1122 0.389009
2.49086 3.1122 2.5703499
2.4140201 3.1122 1.9192801
3.07954 3.1122 1.18197
2.99016 3.0395401 0.94733101
2.6763201 3.1122 2.43712
2.33653 3.1122 1.1348701
2.76895 3.1122 1.71929
2.46558 3.1122 2.4762299
2.3527801 3.1122 0.72343302
2.99016 2.92255 1.13934
2.35427 3.1122 2.78143
2.44888 3.1122 2.58987
3.14815 3.1122 2.4465699
2.36129 3.1122 1.68066
2.69839 3.1122 0.644988
2.99016 2.90415 0.68743902
2.37293 3.1122 0.699063
2.6166799 3.1122 1.2663701
2.3041201 3.1122 2.6803801
3.2551601 3.1122 1.4369
3.17169 3.1122 1.09549
2.99016 3.10006 0.643336
2.99016 3.0696399 0.61630601
2.85536 2.96066 1.40632
2.7883301 3.1122 0.70135701
3.1761501 3.1122 0.92324603
2.99016 2.8762701 0.71825302
2.457 3.1122 0.28495201
2.85536 3.10129 0.60703999
2.58287 3.1122 2.49351
2.62637 3.1122 1.6064
2.5751801 3.1122 1.12506
2.99016 2.91135 0.92858201
2.6682899 3.1122 0.13065299
2.7746799 3.1122 1.8865401
2.85536 3.0403399 0.70001501
2.85536 2.9770701 0.99726897
2.3654301 3.1122 1.84632
3.1751399 3.1122 2.9744201
3.22205 3.1122 1.86016
2.99016 2.9374399 0.25887799
2.4454801 3.1122 1.67375
3.01352 3.1122 1.00617
2.52021 3.1122 2.27437
2.8078899 3.1122 0.090798602
2.85536 2.90343 1.4324
2.7715199 3.1122 0.1495
3.19244 3.1122 2.7681401
3.1338999 3.1122 1.02794
2.99016 2.97229 0.357465
2.71172 3.1122 2.6029501
2.85536 2.9916 1.06858
2.99016 2.9103501 0.74249297
2.99016 2.9525399 1.22894
2.85536 3.0451701 1.01831
2.5475399 3.1122 2.06041
2.38289 3.1122 0.75817198
2.5764899 3.1122 2.3599
2.6104 3.1122 2.8510301
2.3359001 3.1122 2.5581801
2.99016 2.96925 1.29567
2.5990801 3.1122 0.66707897
2.4518499 3.1122 2.2541001
2.36413 3.1122 1.9441299
2.85536 2.87572 1.3554
2.76193 3.1122 0.25455201
2.99016 3.02193 0.57256001
3.27268 3.1122 1.70391
2.99016 2.9358799 1.08998
2.44396 3.1122 1.2481101
3.1226699 3.1122 2.93893
3.0171599 3.1122 1.27265
2.7670701 3.1122 0.106179
2.99016 2.96925 1.29567
2.33512 3.1122 2.32497
2.85536 2.8987999 0.97226501
2.85536 3.0644801 2.64606
2.3436 3.1122 2.6368799
3.1589301 3.1122 0.92746502
2.5946801 3.1122 0.45463601
2.80077 3.1122 0.81980002
2.6493299 3.1122 0.26028699
2.8076 3.1122 2.52894
3.08056 3.1122 0.40772101
2.85536 2.9096701 0.92465001
2.85536 2.91254 2.50173
2.99016 2.87796 2.1107399
2.99016 2.9252 0.200201
2.7795801 3.1122 1.93938
3.18645 3.1122 0.46656299
2.99016 2.90501 1.07954
3.2574201 3.1122 0.12787101
2.3232601 3.1122 0.100216
3.19171 3.1122 2.6335001
2.31354 3.1122 2.6524601
2.99016 3.0924201 0.78207302
2.5602601 3.1122 0.52847499
3.20682 3.1122 1.38026
2.3989201 3.1122 0.247979
2.5113201 3.1122 2.6719699
2.99016 2.8864701 1.57332
2.3599999 3.1122 2.0169799
2.99016 2.9913199 0.553895
3.14904 3.1122 0.95965302
2.5141101 3.1122 2.16997
2.4985001 3.1122 1.11588
2.3287699 3.1122 2.57374
2.3585 3.1122 0.93120003
2.3511801 3.1122 0.14116099
3.11343 3.1122 1.62474
3.2713399 3.1122 1.94207
2.3036201 3.1122 1.76495
2.34951 3.1122 1.7409101
2.99016 2.9005899 2.302
2.99016 2.9177301 0.19828001
3.03338 3.1122 1.20237
2.63327 3.1122 0.066757001
2.4653101 3.1122 2.2672601
2.3556199 3.1122 2.45279
2.99016 2.8798201 2.6375301
2.99016 2.9665599 1.42084
2.5897701 3.1122 2.0526299
2.6951001 3.1122 1.91248
3.2425699 3.1122 2.9419899
2.99016 3.0850501 0.59659898
2.32672 3.1122 1.8936
2.99016 3.0924201 0.78207302
2.99016 3.0114601 1.38245
2.85536 3.0968001 1.80857
2.29825 3.1122 1.13422
2.6663699 3.1122 1.88267
3.05054 3.1122 1.03653
2.99016 3.0324099 0.77624297
2.3823299 3.1122 2.5079
3.08887 3.1122 0.83130199
2.99016 2.97419 1.40397
2.7016399 3.1122 2.8998201
2.99016 3.0939801 2.3250201
2.8238599 3.1122 2.46155
2.6196201 3.1122 2.5344999
2.85536 2.98984 0.30415699
2.5618501 3.1122 0.438182
2.5912499 3.1122 2.28863
2.66363 3.1122 0.762326
2.6377001 3.1122 2.5785601
2.4807799 3.1122 0.80620497
2.99016 2.8992 0.61720097
2.63399 3.1122 1.74069
3.03406 3.1122 0.547975
2.99016 2.9249699 2.49122
2.85536 3.0973699 0.26993701
2.6695099 3.1122 2.8050001
2.99016 3.0596399 1.43018
2.99016 2.9441199 2.09532
3.05619 3.1122 2.78932
3.1363499 3.1122 2.4024401
2.53264 3.1122 2.5615201
2.99016 2.8892801 0.83304
2.99016 2.9979401 1.02674
3.03122 3.1122 0.88223797
2.85536 2.8993299 2.1238501
3.08267 3.1122 0.95240903
2.99016 3.09024 0.96707702
2.85536 2.8709199 0.240336
2.5553999 3.1122 0.58050102
3.2063301 3.1122 1.12139
2.99016 2.89922 2.2657599
3.24015 3.1122 0.11674
2.99016 3.0194399 0.75529402
2.85536 3.0006399 1.08788
2.5536399 3.1122 2.1701701
3.1847701 3.1122 1.46746
2.85536 2.9495499 1.14464
2.83622 3.1122 2.57407
2.85536 3.0563099 0.222654
2.6933401 3.1122 0.174603
2.58549 3.1122 0.37382099
2.7866199 3.1122 0.019820699
2.99016 2.9725599 1.29985
2.99016 2.97384 0.87501901
3.0242 3.1122 3.0093901
2.53635 3.1122 0.69110501
2.8508201 3.1122 0.85668701
3.21609 3.1122 0.43391401
3.2558701 3.1122 0.54165
2.99016 3.0336001 0.85600799
3.1625299 3.1122 1.93898
2.85536 2.9156201 1.47702
2.34215 3.1122 1.64485
2.99016 2.92802 0.45463201
3.2713399 3.1122 1.94207
3.23401 3.1122 1.90609
2.8217001 3.1122 0.190634
2.7787399 3.1122 1.9067301
2.85536 3.0071599 1.00378
2.85536 3.07127 1.77195
2.85536 2.94225 1.71165
2.99016 2.92203 2.3289199
3.2096601 3.1122 2.0288501
2.85536 3.0729101 0.70296198
2.68345 3.1122 2.6316299
2.66712 3.1122 0.67628199
2.99016 2.8886001 2.4976799
2.75049 3.1122 0.79822397
3.22544 3.1122 1.45832
2.77336 3.1122 0.789922
2.99016 3.1024799 2.34044
2.99016 2.905 0.468703
2.8546901 3.1122 1.75939
2.71649 3.1122 2.388
2.68346 3.1122 2.20877
2.99016 3.02788 1.39405
2.6530199 3.1122 2.35184
3.1252699 3.1122 2.9965401
2.85536 2.8881099 0.48794201
2.5325401 3.1122 1.13816
2.53353 3.1122 1.87603
2.3282399 3.1122 2.0425501
2.6593001 3.1122 1.91603
2.7223599 3.1122 0.496398
2.85536 2.9758301 2.65927
3.12643 3.1122 3.00124
2.6824701 3.1122 2.89924
2.7223599 3.1122 2.9902
2.5484099 3.1122 2.3622601
2.7897301 3.1122 2.6293499
2.4452801 3.1122 2.03583
2.85536 2.86798 0.91932702
2.7334001 3.1122 2.8168099
3.16116 3.1122 2.3805799
2.85536 2.8868699 2.7528601
2.7050099 3.1122 2.96365
2.99016 2.8838699 0.82319599
2.85536 2.8956399 0.217225
2.6718099 3.1122 1.63754
2.85536 3.06073 1.71618
2.67155 3.1122 1.79983
3.1073301 3.1122 0.98221898
3.05287 3.1122 1.51425
2.3051901 3.1122 1.27209
2.4325199 3.1122 2.7604101
2.99016 2.91452 0.18854
2.4274099 3.1122 2.5283599
2.85536 2.87343 1.3214099
2.99016 3.0359299 2.3294499
2.7197001 3.1122 2.0669401
3.26249 3.1122 2.3900599
2.6349699 3.1122 0.66057402
2.5696499 3.1122 1.89152
2.99016 2.8978601 0.98373598
2.3405299 3.1122 1.92399
2.30193 3.1122 2.18362
2.7555799 3.1122 2.36672
3.1989999 3.1122 1.65756
2.31247 3.1122 2.26477
3.2214401 3.1122 1.71321
2.99016 2.89926 1.36377
2.99016 2.9391301 0.223464
2.6294899 3.1122 2.7481699
2.85536 3.0638199 0.98898298
3.2328401 3.1122 2.2188599
2.7321 3.1122 1.78363
2.3719299 3.1122 1.7616301
2.7447 3.1122 1.9255
2.99016 3.1015301 2.35183
2.99016 2.8749101 1.04127
3.04353 3.1122 1.26402
2.8384399 3.1122 0.59577698
2.76389 3.1122 0.56788999
3.03526 3.1122 1.01353
2.3313799 3.1122 2.6887701
2.85536 2.8719499 1.6692801
2.4563799 3.1122 2.17732
2.85536 2.9058499 1.7374099
3.2650299 3.1122 1.0822001
2.3961101 3.1122 2.01138
3.1456699 3.1122 0.94257802
3.01984 3.1122 0.49955299
2.99016 2.8738301 0.97752601
2.3145001 3.1122 0.81339902
2.99016 3.0423901 0.67351699
2.6447301 3.1122 2.0734301
2.7409 3.1122 0.310242
2.99016 2.914 0.307495
2.52792 3.1122 0.27469799
2.99016 2.88923 0.493119
2.99016 3.0336001 0.85600799
2.99016 3.0336001 0.85600799
2.5886099 3.1122 2.2279799
2.57038 3.1122 1.13143
2.6506901 3.1122 2.30971
2.99016 2.91307 2.6011801
3.03758 3.1122 1.41601
3.2203801 3.1122 2.1495299
3.1589899 3.1122 1.55608
2.55551 3.1122 1.12551
3.01384 3.1122 2.7658
2.99016 2.91398 1.7029001
2.2950699 3.1122 0.081054099
2.4660599 3.1122 0.84847498
2.7830901 3.1122 1.8006999
2.82143 3.1122 1.01686
3.25757 3.1122 0.46979499
3.2511499 3.1122 2.1006601
2.66836 3.1122 2.7571299
2.42731 3.1122 1.20683
3.1992199 3.1122 1.49511
2.99016 2.9073501 2.2250299
2.8113899 3.1122 0.92843097
2.9988101 3.1122 1.12287
2.6186299 3.1122 2.3445001
3.01478 3.1122 1.12766
2.85536 2.9818399 0.83432299
3.1605501 3.1122 2.8392501
2.5998001 3.1122 0.0679515
3.02196 3.1122 2.9927499
2.85536 3.0497999 0.69871098
2.37588 3.1122 0.0450764
3.2074001 3.1122 1.25292
2.39922 3.1122 2.01932
2.6666801 3.1122 1.64703
3.2397699 3.1122 1.76336
2.44367 3.1122 1.77977
2.68822 3.1122 0.093097501
2.85536 2.88642 0.727193
2.85536 2.8826001 0.950966
2.72435 3.1122 0.042466801
2.31707 3.1122 0.70767403
2.99016 3.1087799 3.03143
2.99016 2.9317501 2.6846199
2.60975 3.1122 2.1456101
2.85338 3.1122 1.03153
2.99016 2.8829401 2.71135
2.85536 2.9324901 2.66978
2.8375399 3.1122 0.80970103
2.6212399 3.1122 2.882
2.7119601 3.1122 2.8356099
3.0743501 3.1122 0.93238598
3.2573299 3.1122 1.54365
2.52123 3.1122 2.6745601
2.6022601 3.1122 0.0237856
3.0409701 3.1122 3.0516601
3.22451 3.1122 1.5826401
3.1524701 3.1122 2.56355
3.2255499 3.1122 0.36635801
2.99016 2.90692 1.64963
2.85536 3.0395601 0.20105
2.58887 3.1122 1.6262701
2.85536 2.96526 0.885158
3.27932 3.1122 0.47553101
3.2197499 3.1122 2.9138899
2.37166 3.1122 1.83859
3.2509799 3.1122 1.0254101
2.7599399 3.1122 2.7046299
2.99016 2.87432 1.47563
2.99016 2.97419 1.40397
2.4338701 3.1122 1.30628
2.99016 2.9669399 0.33275199
2.73509 3.1122 0.68207097
2.6370201 3.1122 2.5386901
2.99016 3.05687 0.69276601
2.5931101 3.1122 1.73197
3.17384 3.1122 2.0097599
3.1106 3.1122 1.96394
2.4862599 3.1122 0.218468
2.85536 2.9403501 0.26345199
2.43385 3.1122 2.1486399
3.1073501 3.1122 1.21205
2.99016 2.8701501 1.97102
2.85536 2.9061999 2.4305201
2.99016 2.8849299 1.87394
3.2439201 3.1122 2.8113201
2.63691 3.1122 2.9813099
2.70573 3.1122 0.37293699
2.85536 2.89344 0.74901098
2.99016 3.10534 2.74911
2.8347199 3.1122 0.985452
2.85536 3.0011699 0.29174599
2.6098599 3.1122 0.039796099
2.74277 3.1122 2.9577
2.99016 2.9850199 1.7322299
2.99016 2.9405701 1.82187
2.99016 3.05233 0.984124
3.1925001 3.1122 1.39197
2.59887 3.1122 0.66930401
2.99016 2.93923 1.10683
3.0847499 3.1122 1.97886
2.99016 2.99371 0.236105
2.99016 3.0086601 1.60531
2.3405499 3.1122 1.0839601
2.7321 3.1122 1.78363
3.06738 3.1122 0.60439301
3.2523999 3.1122 2.85811
2.4818399 3.1122 0.241575
2.3734 3.1122 0.89379799
2.4419799 3.1122 1.65528
2.5899601 3.1122 2.2767401
2.99016 3.0773101 2.36836
2.85536 2.9135201 1.40511
2.9935901 3.1122 0.69745702
2.99016 3.04333 1.2826999
2.5422399 3.1122 0.380759
2.3260601 3.1122 1.88436
2.63694 3.1122 2.7903399
2.8150401 3.1122 2.39867
2.99016 3.0620601 0.60392201
2.72539 3.1122 3.0504501
2.8046501 3.1122 2.3847201
2.4895799 3.1122 0.0648693
2.85536 3.0244999 0.72923797
2.3354299 3.1122 0.925511
2.85536 2.9203501 0.66934901
2.3227601 3.1122 0.89698797
3.0953901 3.1122 1.05382
3.0011401 3.1122 0.022782
2.99016 2.8694699 2.3904901
3.1057401 3.1122 0.93807203
2.6458099 3.1122 0.048943799
2.5917101 3.1122 2.05268
2.85536 3.0864799 0.727943
2.3320601 3.1122 0.056630202
2.4614401 3.1122 2.4424
2.6056199 3.1122 0.19641501
2.6119101 3.1122 2.64873
2.7013299 3.1122 2.77051
2.58864 3.1122 0.69629502
2.5751901 3.1122 0.39696601
3.2525301 3.1122 2.0432601
2.32195 3.1122 2.1752
2.99016 2.88607 0.70198703
2.99016 3.01337 2.7078099
2.41713 3.1122 0.776097
2.7344899 3.1122 2.72351
2.99016 3.0439301 1.11593
2.99016 3.0898399 1.42601
3.2541399 3.1122 1.53058
3.1847501 3.1122 2.30814
2.99016 2.9560599 0.270549
2.3465199 3.1122 0.168146
2.58903 3.1122 2.19524
3.2713101 3.1122 1.5172499
2.46591 3.1122 1.28183
2.8366599 3.1122 0.72738498
2.99016 2.98645 1.14438
2.5481801 3.1122 1.2352099
2.8280799 3.1122 0.17367999
2.99016 2.9800999 0.25968301
2.4230299 3.1122 2.57307
3.0626299 3.1122 1.23356
3.0091901 3.1122 0.081915997
2.99016 2.9551401 1.33728
2.7181699 3.1122 2.3489001
3.1489201 3.1122 1.29601
2.5680101 3.1122 0.775433
2.99016 2.9925599 0.86494702
2.85536 2.9202199 1.61317
2.4204199 3.1122 2.70258
3.17225 3.1122 2.8531499
3.1610899 3.1122 1.53128
2.64713 3.1122 2.2792799
3.02598 3.1122 0.494654
2.61183 3.1122 0.28523499
2.85536 2.98948 0.92009002
3.03914 3.1122 0.72671801
3.03619 3.1122 0.54897302
2.6289599 3.1122 1.64806
2.85536 3.0006399 1.08788
2.4207499 3.1122 0.81789201
2.31848 3.1122 2.61163
3.22173 3.1122 2.97914
2.99016 2.94712 2.4463601
2.5810499 3.1122 1.92135
2.5854101 3.1122 1.80243
2.99016 3.01965 1.63832
2.99016 2.8783901 0.636096
2.85536 2.8821199 0.59704101
2.85536 2.9287901 0.63513798
2.3912799 3.1122 1.68993
2.99016 2.8847699 1.5487
2.7230101 3.1122 0.73217303
3.20854 3.1122 0.98165298
2.85536 2.8680601 2.85291
2.99016 2.9839101 1.44039
3.0191801 3.1122 1.15545
2.99016 3.0048499 1.19405
2.68276 3.1122 0.77531302
2.99016 2.97594 2.3466401
2.85536 3.0766101 0.96061599
2.5095799 3.1122 1.1093301
2.99016 2.9881301 0.78144401
2.99016 2.93802 2.4337699
2.5134399 3.1122 2.73611
2.85536 3.01197 1.72508
2.99016 2.9547801 1.43036
2.99016 2.97364 1.81083
2.85536 2.8754301 0.40797701
2.48527 3.1122 2.7540801
2.35692 3.1122 0.112178
2.3947001 3.1122 1.03433
2.7163 3.1122 0.54528302
2.80246 3.1122 2.45087
2.5882101 3.1122 1.26921
2.6593499 3.1122 0.170761
3.2406299 3.1122 1.69424
3.25614 3.1122 1.62798
2.70996 3.1122 1.68865
2.99016 2.9498799 0.29007399
2.85536 3.0078101 0.92127597
2.57779 3.1122 0.387153
2.31602 3.1122 1.8845
3.1520801 3.1122 1.3073699
3.2498 3.1122 0.37294599
2.3968301 3.1122 0.89984298
2.46733 3.1122 2.6238401
2.3369801 3.1122 1.09112
2.3826201 3.1122 1.03645
2.99016 2.92749 0.35653999
2.5052199 3.1122 1.98551
2.99016 3.1016901 1.4659899
2.3831601 3.1122 2.6187501
3.2326901 3.1122 2.78233
2.7591801 3.1122 2.0380299
2.85536 2.8881099 0.48794201
2.6917701 3.1122 0.10334
2.64803 3.1122 0.051925
2.3538799 3.1122 0.116834
2.99016 3.0658 2.34779
2.99016 2.89889 1.15055
2.7013299 3.1122 2.77051
2.4405501 3.1122 2.30392
2.85536 2.8880401 0.67710102
2.99016 3.0873201 3.0501299
2.85536 2.8982999 1.43998
2.85536 3.0987401 0.72128201
2.85536 3.0529301 0.97931898
2.8204501 3.1122 2.47627
2.99016 2.87672 1.2165
2.3603799 3.1122 1.15187
2.4177699 3.1122 1.0539401
2.49193 3.1122 2.60518
2.6445501 3.1122 2.25999
2.85536 2.87409 1.49177
2.4848599 3.1122 2.5506499
2.99016 3.00984 0.73483998
3.1148901 3.1122 0.47369501
3.1430299 3.1122 1.21846
2.85536 2.8701501 0.33789399
2.3408301 3.1122 1.2733901
3.09113 3.1122 2.766
3.2639899 3.1122 2.1683099
3.2774799 3.1122 1.61684
2.56444 3.1122 2.40995
2.6187501 3.1122 0.42168599
3.14906 3.1122 1.0311
2.85536 2.88853 1.1100399
2.99016 2.97419 1.40397
2.7139699 3.1122 3.0157599
2.4719999 3.1122 1.7802
2.51897 3.1122 2.1516199
2.99016 2.9614401 1.2368701
2.99016 2.9481201 0.24014799
2.99016 2.9040699 0.70817202
2.99016 2.87397 1.26662
2.8538101 3.1122 1.8375
2.5991399 3.1122 2.0448999
3.01037 3.1122 0.52500498
2.85536 2.90415 0.79380602
2.99016 2.9742 1.25945
2.6375 3.1122 2.4203601
2.99016 2.9143801 1.13218
2.99016 2.99507 0.98969603
2.53455 3.1122 0.66768497
2.5779099 3.1122 0.36419001
3.05532 3.1122 2.35936
3.2670801 3.1122 1.0814199
2.53687 3.1122 1.2043999
