# .PCD v0.7 - Point Cloud Data file format
VERSION 0.7
FIELDS x y z
SIZE 4 4 4
TYPE F F F
COUNT 1 1 1
WIDTH 335
HEIGHT 1
VIEWPOINT 0 0 0 1 0 0 0
POINTS 335
DATA ascii
-1.24341 -0.79330498 0.35521701
-1.2119499 -0.79330498 0.32997501
-1.40988 -0.87217301 0.28791699
-1.50123 -0.88101298 0.303983
-1.3107899 -0.77507102 0.376423
-1.3107899 -0.77182901 0.30511701
-1.49491 -0.87217301 0.232806
-1.5458601 -0.88136798 0.303983
-1.2815 -0.83444297 0.328298
-1.5409 -0.88433897 0.303983
-1.50827 -0.87217301 0.30283499
-1.4442 -0.87217301 0.25315201
-1.4566 -0.88434899 0.303983
-1.3107899 -0.80113298 0.32394901
-1.51112 -0.87827301 0.28389099
-1.2815 -0.81132901 0.33546001
-1.2815 -0.83206701 0.34209001
-1.44007 -0.87827301 0.31121901
-1.52411 -0.88878101 0.303983
-1.51467 -0.87217301 0.334382
-1.18223 -0.79330498 0.34907499
-1.53575 -0.87217301 0.267207
-1.1587501 -0.79330498 0.349556
-1.51896 -0.87827301 0.32475701
-1.4575 -0.87217301 0.28830299
-1.53527 -0.87217301 0.26906899
-1.29329 -0.76476997 0.34869701
-1.49743 -0.88754201 0.292063
-1.4725 -0.87827301 0.32814401
-1.44153 -0.87217301 0.28320801
-1.36689 -0.89047801 0.30789301
-1.47224 -0.89047801 0.30370301
-1.46452 -0.87827301 0.27185401
-1.28246 -0.76476997 0.36485499
-1.2815 -0.78770602 0.38072199
-1.23953 -0.79330498 0.29761001
-1.46261 -0.87827301 0.25443801
-1.24341 -0.79330498 0.35521701
-1.47451 -0.88255101 0.292063
-1.2815 -0.819175 0.362919
-1.41804 -0.87827301 0.26409101
-1.45195 -0.89047801 0.294763
-1.3413 -0.85386401 0.284136
-1.5458601 -0.88136798 0.303983
-1.26428 -0.79330498 0.309874
-1.2815 -0.82305598 0.36444101
-1.49493 -0.87827301 0.30844501
-1.45268 -0.87217301 0.340974
-1.2815 -0.77046198 0.35040501
-1.36937 -0.87908399 0.28696001
-1.1587501 -0.79330498 0.349556
-1.5405 -0.87217301 0.310606
-1.45821 -0.87217301 0.25333101
-1.20769 -0.79330498 0.31200001
-1.16912 -0.79330498 0.35951999
-1.34698 -0.85386401 0.28432101
-1.3107899 -0.80113298 0.32394901
-1.3107899 -0.77182901 0.30511701
-1.25238 -0.79330498 0.37585899
-1.44007 -0.87827301 0.31121901
-1.52768 -0.89047801 0.30007401
-1.26329 -0.79330498 0.38073
-1.20391 -0.79330498 0.388044
-1.36937 -0.86574697 0.325461
-1.43364 -0.87827301 0.311726
-1.3107899 -0.76810902 0.38212699
-0.213925 0.209995 0.28765801
-0.191146 0.23009799 0.29512399
-0.191146 0.265205 0.307309
-0.215555 0.159601 0.285395
-0.191146 0.270587 0.31332499
-0.191146 0.165813 0.300542
-0.191146 0.25398999 0.32148099
-0.225264 0.185082 0.28765801
-0.191146 0.183506 0.310772
-0.21702 0.215762 0.28765801
-0.191146 0.232952 0.305949
-0.191146 0.227553 0.30401
-0.215555 0.151186 0.285469
-0.191146 0.226593 0.33602399
-0.191146 0.168556 0.34077099
-0.191146 0.183506 0.310772
-0.191146 0.17976899 0.34054101
-0.191146 0.139915 0.302264
-0.191146 0.265205 0.307309
-0.234826 0.165565 0.28765801
-0.191146 0.164308 0.31644699
-0.191146 0.26539999 0.29866099
-0.191146 0.12848 0.30298299
-0.191146 0.224209 0.310399
-0.191146 0.168556 0.34077099
-0.191146 0.235652 0.315779
-0.191146 0.23494899 0.319132
-0.233584 0.22362 0.28765801
-0.22099499 0.147918 0.28765801
-0.191146 0.207975 0.34369099
-0.191146 0.226593 0.33602399
-0.20799699 0.195657 0.28765801
-0.215555 0.19761699 0.28509399
-0.191146 0.265205 0.307309
-0.191146 0.23009799 0.29512399
-0.21635 0.21092799 0.28765801
1.83253 -0.65851098 0.29169601
1.60096 -0.65851098 0.52194899
1.54004 -0.65851098 0.21036699
1.53813 -0.79330498 0.49632701
1.56239 -0.65851098 0.461555
1.47079 -0.65851098 0.176846
1.64855 -0.65851098 0.27140301
1.60821 -0.79330498 0.48655
1.4276 -0.79330498 0.163982
1.72229 -0.65851098 0.35413501
1.69671 -0.65851098 0.348129
1.63671 -0.65851098 0.24536499
1.9431 -0.65851098 0.38234001
1.38234 -0.79330498 0.46520099
1.32139 -0.79330498 0.334728
1.32412 -0.65851098 0.38158
1.3415999 -0.65851098 0.176934
1.4094501 -0.65851098 0.302755
1.43946 -0.65851098 0.49338901
1.4165 -0.65851098 0.138349
1.32498 -0.79330498 0.29935199
1.88736 -0.65851098 0.31972
1.37047 -0.79330498 0.144775
1.32019 -0.65851098 0.40235099
1.40785 -0.65851098 0.25227201
1.3461699 -0.79330498 0.245886
1.33383 -0.65851098 0.183357
1.388 -0.65851098 0.29579899
1.38947 -0.79330498 0.19441099
1.46276 -0.65851098 0.441856
1.46647 -0.65851098 0.197263
1.5255001 -0.79330498 0.49585599
1.38184 -0.65851098 0.24030399
1.58547 -0.65851098 0.16096599
1.82634 -0.65851098 0.296096
1.3825901 -0.65851098 0.358821
1.40661 -0.65851098 0.43092901
1.48901 -0.79330498 0.136536
1.34036 -0.65851098 0.30289
1.32139 -0.79330498 0.334728
1.32868 -0.65851098 0.380898
1.30523 -0.65851098 0.174225
1.4165 -0.65851098 0.138349
1.32373 -0.65851098 0.16100401
1.6834199 -0.65851098 0.41047499
1.69505 -0.65851098 0.482573
1.84807 -0.65851098 0.29289499
1.2922 -0.79330498 0.409486
1.62001 -0.65851098 0.398352
1.3105201 -0.79330498 0.28025401
1.9193701 -0.65851098 0.39947101
1.4114799 -0.79330498 0.15132301
1.8184299 -0.65851098 0.203352
1.9037499 -0.65851098 0.369497
1.393 -0.65851098 0.27075499
1.33518 -0.65851098 0.232866
1.6497 -0.65851098 0.54223102
1.7186 -0.65851098 0.32045701
1.71746 -0.65851098 0.35234201
1.46276 -0.65851098 0.441856
1.32635 -0.79330498 0.40721199
1.34711 -0.65851098 0.22148301
1.43953 -0.65851098 0.46129099
1.55362 -0.65851098 0.446055
1.57695 -0.65851098 0.41315401
1.58259 -0.65851098 0.44777599
1.52007 -0.79330498 0.49539101
1.4190201 -0.79330498 0.093929499
1.3174 -0.65851098 0.219964
1.53813 -0.79330498 0.49632701
1.39728 -0.65851098 0.286708
1.5533 -0.65851098 0.22088601
1.70727 -0.65851098 0.51895499
1.93083 -0.65851098 0.31053901
1.41465 -0.65851098 0.15399
1.82634 -0.65851098 0.296096
1.3174 -0.65851098 0.219964
1.45973 -0.79330498 0.48202401
1.7790999 -0.65851098 0.38629699
1.42751 -0.65851098 0.413434
1.80446 -0.65851098 0.384505
1.2886 -0.79330498 0.36587799
1.54605 -0.65851098 0.48648399
1.33623 -0.65851098 0.357784
1.4062999 -0.79330498 0.092425697
1.42529 -0.79330498 0.104541
1.41119 -0.65851098 0.183479
1.5755 -0.65851098 0.427499
1.31279 -0.65851098 0.43465501
1.38234 -0.79330498 0.46520099
1.36597 -0.65851098 0.101924
1.56715 -0.65851098 0.503227
1.8126301 -0.65851098 0.37202299
1.3554699 -0.79330498 0.39666399
1.8105 -0.65851098 0.25569099
1.36887 -0.65851098 0.34851801
1.39994 -0.65851098 0.45626599
1.29138 -0.79330498 0.287797
1.46276 -0.65851098 0.441856
1.51825 -0.65851098 0.446821
1.6749901 -0.65851098 0.38619101
1.74187 -0.65851098 0.396494
1.63855 -0.65851098 0.53121197
1.2886 -0.79330498 0.36587799
1.45741 -0.65851098 0.211942
1.37047 -0.79330498 0.144775
1.8956 -0.65851098 0.45555899
1.44434 -0.65851098 0.45114899
1.44163 -0.79330498 0.101146
1.8175499 -0.65851098 0.23342299
1.3248399 -0.79330498 0.2881
1.39363 -0.65851098 0.117309
1.70101 -0.65851098 0.40029699
1.59583 -0.65851098 0.42566699
1.45742 -0.65851098 0.49513
1.31555 -0.79330498 0.33371699
1.96026 -0.65851098 0.34566399
1.59452 -0.65851098 0.152153
1.47498 -0.65851098 0.45335799
1.62499 -0.65851098 0.459849
1.84598 -0.65851098 0.32589099
1.38508 -0.79330498 0.14192501
1.67667 -0.65851098 0.47498
1.54589 -0.65851098 0.50185102
1.36597 -0.65851098 0.101924
1.87551 -0.65851098 0.339398
1.31567 -0.79330498 0.270246
1.53842 -0.65851098 0.513551
1.65017 -0.65851098 0.35266501
2.45785 -0.65851098 0.23886099
2.5080299 -0.79330498 0.243522
2.4918799 -0.65851098 0.225063
2.45837 -0.65851098 0.18559
2.6003399 -0.79330498 0.329151
2.6015401 -0.65851098 0.40581301
2.48739 -0.79330498 0.358163
2.41626 -0.65851098 0.27355701
2.5708201 -0.65851098 0.195465
2.52952 -0.65851098 0.222776
2.46328 -0.65851098 0.388594
2.37464 -0.79330498 0.23262601
2.6447799 -0.65851098 0.364887
2.6048501 -0.65851098 0.38756099
2.4756401 -0.65851098 0.22008
2.53968 -0.79330498 0.257927
2.46556 -0.65851098 0.35456699
2.4077001 -0.65851098 0.162075
2.3845401 -0.79330498 0.15444399
2.62218 -0.79330498 0.38128799
2.53824 -0.65851098 0.215856
2.44261 -0.65851098 0.39135301
2.5871501 -0.65851098 0.42261299
2.58096 -0.79330498 0.39513901
2.4439001 -0.65851098 0.40970299
2.4878299 -0.79330498 0.193482
2.4170699 -0.65851098 0.31435299
2.3717699 -0.79330498 0.207481
2.39555 -0.65851098 0.28676799
2.47859 -0.65851098 0.201445
2.6199501 -0.65851098 0.27271
2.48739 -0.79330498 0.358163
2.6582 -0.65851098 0.30867401
2.5408101 -0.65851098 0.389543
2.5764599 -0.65851098 0.21826901
2.49038 -0.65851098 0.265571
2.4486699 -0.79330498 0.377922
2.4268301 -0.79330498 0.23823
2.4144199 -0.79330498 0.33293399
2.4823201 -0.65851098 0.14701
2.58779 -0.65851098 0.160046
2.5939 -0.65851098 0.38360399
2.6203599 -0.65851098 0.32628
2.37464 -0.79330498 0.23262601
2.3902099 -0.79330498 0.19193
2.4219799 -0.65851098 0.155248
2.6453199 -0.65851098 0.34695101
2.3439 -0.79330498 0.27241799
2.4944799 -0.65851098 0.381982
2.5771999 -0.79330498 0.250146
2.3865199 -0.79330498 0.379354
2.4598801 -0.79330498 0.271409
2.4665899 -0.65851098 0.390861
2.3367 -0.79330498 0.181522
2.4162199 -0.65851098 0.343898
2.58816 -0.65851098 0.19554
2.5313699 -0.65851098 0.174712
2.5392499 -0.65851098 0.36148301
2.64077 -0.79330498 0.356399
2.47416 -0.65851098 0.35416901
2.5667801 -0.79330498 0.25706199
2.41522 -0.65851098 0.33442101
2.5020299 -0.65851098 0.33179599
2.4082301 -0.65851098 0.26430601
2.61798 -0.65851098 0.24825899
2.4426301 -0.65851098 0.24170899
2.4228401 -0.65851098 0.21019199
2.5917301 -0.79330498 0.31315699
2.4268301 -0.79330498 0.23823
2.4605899 -0.65851098 0.36760101
2.4307799 -0.79330498 0.34472999
2.56743 -0.79330498 0.31222001
2.34484 -0.79330498 0.35621101
2.6582 -0.65851098 0.30867401
2.5102 -0.79330498 0.357963
2.6453199 -0.65851098 0.34695101
2.58918 -0.65851098 0.32380599
2.5849099 -0.65851098 0.27834201
2.4945199 -0.65851098 0.404273
2.39573 -0.65851098 0.350701
2.4929099 -0.79330498 0.34506801
2.36695 -0.65851098 0.334903
2.3420801 -0.65851098 0.359669
2.5090301 -0.65851098 0.136989
2.6135199 -0.79330498 0.34474999
2.5883501 -0.65851098 0.37726799
2.54931 -0.79330498 0.37423101
2.3865199 -0.79330498 0.379354
2.60795 -0.79330498 0.338873
2.4203999 -0.65851098 0.149102
2.3841 -0.65851098 0.33336601
2.6291399 -0.65851098 0.25517201
2.43332 -0.65851098 0.168457
2.5701499 -0.79330498 0.28172901
2.36025 -0.79330498 0.184221
2.6321199 -0.65851098 0.26454499
2.5332201 -0.65851098 0.19762599
2.3171401 -0.79330498 0.28863201
2.51126 -0.65851098 0.205156
2.5457699 -0.79330498 0.36714
4.2513199 -3.1122 2.16555
4.2427502 -3.1122 2.1733799
4.2525702 -3.1122 2.17149
4.1985102 -3.1122 2.1800101
